# .PCD v0.7 - Point Cloud Data file format
VERSION 0.7
FIELDS x y z
SIZE 4 4 4
TYPE F F F
COUNT 1 1 1
WIDTH 1579
HEIGHT 1
VIEWPOINT 0 0 0 1 0 0 0
POINTS 1579
DATA ascii
40.928131 -3.7863898 3.137409
41.00856 -3.7257042 3.147579
41.088665 -3.6654172 3.1570189
41.172089 -3.6089716 3.153419
41.252262 -3.5501919 3.1336291
41.334759 -3.4939361 3.0950589
41.419735 -3.4380214 3.0611989
41.502991 -3.3817708 3.0237291
41.58746 -3.326643 2.9745591
41.666901 -3.2710407 2.9297991
41.747562 -3.2185173 2.882129
41.833355 -3.160213 2.840219
41.917553 -3.1051712 2.792979
41.99894 -3.04813 2.7819891
42.076084 -2.9861863 2.832839
42.144707 -2.9278972 2.930439
39.085743 3.4166231 -0.59088099
35.582298 -2.9040761 -1.750801
39.401672 3.8336728 -0.40551099
39.648193 4.1079578 -0.27181101
40.49107 4.8585358 0.14377899
40.934555 5.0942221 0.32594901
42.048363 5.3436346 0.711519
43.013245 5.3214397 0.99777901
42.812412 -2.2882986 4.2505989
42.88802 -2.2277796 4.3146691
42.966469 -2.1670234 4.3517489
43.045715 -2.1024272 4.3858089
43.122337 -2.0369067 4.4677191
43.200359 -1.9786248 4.5205188
43.279636 -1.9166031 4.5552292
43.356892 -1.8524146 4.6134191
43.435642 -1.7925292 4.6534791
43.516426 -1.7364674 4.6601591
43.595695 -1.6712872 4.6711488
43.677895 -1.6147547 4.6790791
43.759159 -1.5564057 4.6651392
43.842369 -1.5011786 4.616919
43.921356 -1.4385245 4.5771489
44.002304 -1.3726161 4.6417389
44.079205 -1.3141627 4.6910591
44.16037 -1.2573445 4.7094188
44.24081 -1.1980848 4.7073789
44.322075 -1.140538 4.7103491
44.403851 -1.082707 4.7137189
44.484261 -1.0241368 4.698709
44.566002 -0.9669373 4.6731291
44.658859 -0.91867959 4.6461492
41.661144 4.0515723 2.793159
38.929642 3.3703277 0.221159
39.476421 2.635968 2.6829989
40.768539 3.5788236 2.9145689
33.078667 -1.9507179 1.1343091
38.613373 2.1303086 1.990009
38.685474 2.1956716 2.045639
38.763798 2.2576435 2.1097291
38.843113 2.3189783 2.173229
38.92086 2.380533 2.225009
37.306736 0.51844811 2.442939
37.14259 0.40549326 2.4243391
37.953228 0.82153004 2.548249
37.870586 0.76618433 2.564909
36.821262 0.17030454 2.486429
38.928551 2.5452013 2.081459
38.847073 2.4856336 2.0195291
38.771679 2.4219587 1.953879
38.687008 2.3637774 1.868679
33.341076 1.0430894 3.7212391
34.91893 2.4220953 1.545009
42.118164 5.3235226 1.155769
32.049156 1.5983675 0.86373901
41.129406 5.1492639 0.68036902
44.41523 4.8274655 1.6240391
33.617691 2.7872908 -4.0534911
36.710358 1.3291336 -1.740801
45.166546 4.520318 -0.87649101
45.247902 4.5901785 0.121449
34.048061 0.83896017 -1.690661
34.217739 -1.8422768 -0.86624098
36.50069 5.3659582 -1.1221811
47.448738 0.85230875 2.2475691
47.537537 0.90987921 2.1752989
47.61401 0.9669466 2.180409
47.690563 1.0276592 2.2172589
47.76976 1.0877821 2.240149
47.849007 1.1482401 2.265799
47.929939 1.2084241 2.2883091
48.010864 1.2678001 2.299099
48.093082 1.3258905 2.2878489
48.17614 1.3836765 2.2647791
48.262207 1.4292371 2.2217889
32.547668 0.1809895 -0.47678101
45.863228 4.0038748 1.221319
32.595501 3.985378 -5.852901
32.613838 2.1801994 0.55672902
34.414665 -0.77499366 4.3824391
34.543396 -1.9453449 3.5429289
34.363049 4.742394 -0.515131
33.062057 -1.1427765 -0.46520099
33.773911 2.5137796 -3.4530711
32.103802 2.9106009 -2.667511
33.30373 -1.9569116 1.736859
41.987881 3.6031885 3.0237589
42.069851 3.6599007 2.996289
39.651974 -4.7508025 1.2313091
42.15131 3.7177243 2.9826291
42.233002 3.7754691 2.9803691
37.678249 1.7311175 1.714559
32.895523 2.2401094 1.962719
39.328381 3.7629936 1.1471291
34.485889 2.9306941 1.697659
42.427845 4.8822784 2.298969
32.203495 1.6494381 0.041039001
38.646748 2.9489763 -0.38825101
39.611423 3.6869357 1.941699
38.372772 2.5180359 -0.70894098
32.393009 1.9425027 1.321839
35.828873 1.7382419 1.8893189
40.68483 -3.7913327 3.109529
40.763988 -3.7296796 3.147419
40.843369 -3.6697578 3.1752391
40.924026 -3.6104035 3.1898389
41.003407 -3.5480335 3.2079589
41.086391 -3.4913747 3.203069
41.167526 -3.4329839 3.1868091
41.249008 -3.3757224 3.1591389
41.331638 -3.3197303 3.1206391
41.417751 -3.2653995 3.0605991
41.501057 -3.211226 2.995189
41.582687 -3.1554048 2.9547191
41.666771 -3.100137 2.905309
41.74966 -3.0443013 2.8664491
41.833027 -2.9886401 2.831429
41.914532 -2.9299788 2.8148091
41.993633 -2.8684666 2.8535891
42.062477 -2.8091171 2.9648089
39.483494 3.9255033 -0.36104101
39.564953 4.0176911 -0.31637099
39.981541 4.4386511 -0.099521004
40.666088 4.9672775 0.21870901
41.579815 5.2667437 0.55511898
42.142849 5.3535695 0.74204898
42.915051 5.3319235 0.97039902
43.505913 5.2346458 1.1292289
39.659363 3.922627 1.7129591
42.805019 -2.1089497 4.3590488
42.882526 -2.0457168 4.4184189
42.960701 -1.9857912 4.4563289
43.036674 -1.9256737 4.5230389
43.115917 -1.8612912 4.567409
43.195618 -1.7993799 4.601439
43.273594 -1.7377468 4.650209
43.352295 -1.6763647 4.6864991
43.432064 -1.6180367 4.7026391
43.512497 -1.5582752 4.7153492
43.594257 -1.4997758 4.7177391
43.675785 -1.4417909 4.7042289
43.755867 -1.3815435 4.6824689
43.837925 -1.3245589 4.6738091
43.916908 -1.262699 4.7089291
43.996056 -1.2016735 4.746489
44.076317 -1.1424432 4.7591691
44.157417 -1.0842758 4.7622991
44.239075 -1.0261968 4.766469
44.318268 -0.9652859 4.771419
44.401115 -0.90844142 4.750309
44.484039 -0.8514576 4.7281289
44.56675 -0.79265058 4.7010489
44.66468 -0.74400771 4.6373191
41.742054 4.1066484 2.7624791
44.490814 4.1131754 2.598819
39.55764 2.6954699 2.719579
40.68507 3.5247326 2.920759
40.605331 3.4650683 2.9187591
40.525326 3.4053321 2.905179
40.443333 3.3479862 2.895499
40.363712 3.2880385 2.8929989
40.285191 3.2272797 2.8894091
40.203495 3.1689129 2.878499
40.119957 3.1121769 2.8590491
35.235023 -0.10393882 -1.791651
39.085068 -1.1336849 -3.210891
32.988159 -1.8473799 1.434029
39.718723 2.9846897 2.680459
39.802521 3.041492 2.7130589
39.87999 3.1029687 2.717649
39.962502 3.1606908 2.739219
33.087345 -1.9434228 1.334559
33.079075 -1.9496799 1.234539
40.151283 -4.6582642 1.019009
33.843849 2.3789344 -1.852371
33.828983 2.3603477 -3.352731
45.676735 4.2139106 0.92123902
33.182003 0.58598971 3.8908091
44.282211 4.9348955 1.439689
34.830704 -3.3715253 1.343989
44.482563 4.6929541 -1.177801
39.228115 -0.3143183 -3.1937311
45.44009 4.2010479 1.620999
45.401546 4.1694956 1.721259
45.363476 4.1385117 1.822109
47.452011 1.0213842 2.1749489
47.536133 1.0786083 2.119839
47.612549 1.1371801 2.140239
47.690048 1.1986532 2.1687591
47.770058 1.2575371 2.2003889
47.848743 1.3185997 2.2266591
47.930668 1.3779967 2.2479391
48.011818 1.4371295 2.248379
48.093662 1.4957159 2.238219
48.17675 1.5523226 2.2096691
48.259842 1.6085277 2.1739991
48.337334 1.6514304 2.141129
45.430164 4.0044322 -1.475481
43.127522 5.2840738 1.309289
42.931664 5.3059244 1.254769
45.881668 3.4605985 -1.872631
41.014862 5.0759325 1.058699
40.359222 -0.17919318 -4.2494712
44.852562 4.8144345 0.121779
41.987629 3.7753141 2.9514489
45.20689 4.5549431 -0.67750102
42.313847 3.83359 2.9798391
42.395428 3.8934786 2.959409
32.446545 2.0083435 0.47414899
41.423195 5.1916428 1.062319
33.850243 2.3283291 -1.371501
33.337101 2.5668693 -1.4814709
39.469608 -4.6793356 1.4548891
39.539707 -4.5823126 1.5741889
42.477154 3.9491484 2.930119
42.558414 4.0062089 2.893369
39.782112 -4.4146996 1.800239
39.860996 -4.3334579 1.907729
41.660061 4.8634987 2.0639789
37.741257 2.0953069 1.068049
41.6744 4.5845528 2.4445691
38.567142 2.8351457 -0.43667099
35.882656 2.0362735 0.78583902
38.295456 2.4216905 -0.75198102
42.02562 1.8782207 4.2376089
41.90094 4.6372814 2.3819289
42.679668 5.3427362 1.043699
40.6017 -3.6751094 3.133019
40.679932 -3.6127937 3.183989
40.759064 -3.5535345 3.2125089
40.838902 -3.4909434 3.231679
40.919979 -3.4335318 3.2382691
41.000946 -3.3744342 3.236979
41.082897 -3.3165734 3.2254989
41.165791 -3.2592776 3.201019
41.247089 -3.2033391 3.1584489
41.327919 -3.1486802 3.1021991
41.415459 -3.0948188 3.0316689
41.499603 -3.0408282 2.9678791
41.583126 -2.9845698 2.931319
41.664249 -2.9277811 2.9029591
41.748535 -2.871994 2.8705289
41.830009 -2.8153963 2.8439789
41.910194 -2.7520585 2.877389
41.980648 -2.6933296 2.9766591
40.151711 4.5952892 -0.014531
40.065418 4.5182567 -0.057301
40.577095 4.9152279 0.18111899
41.487595 5.23843 0.52114898
42.237556 5.3620586 0.77248901
42.817139 5.3423691 0.94332898
43.605099 5.2098007 1.1542391
40.82856 4.4619703 2.169409
33.710178 2.9181457 1.1706589
42.722569 -1.9939646 4.3815188
42.797253 -1.9367359 4.4387388
42.876781 -1.874024 4.4731588
34.398232 5.8108249 -1.634441
43.034607 -1.7463654 4.5868292
43.112572 -1.6857262 4.6258888
43.19035 -1.6269324 4.6559691
43.270672 -1.5643103 4.6873188
43.349766 -1.5041863 4.7132788
43.429863 -1.4451156 4.7296491
43.511086 -1.3863517 4.7308588
43.592194 -1.3268044 4.7239089
43.672997 -1.2676026 4.721209
43.75351 -1.208526 4.7364688
43.833664 -1.149822 4.7532392
43.913258 -1.0884815 4.7740488
43.99411 -1.0301101 4.7785091
44.075058 -0.9712745 4.7782588
44.155277 -0.91106319 4.7845092
44.237251 -0.85261893 4.779129
44.319366 -0.79439104 4.7681489
44.400806 -0.73664284 4.7524891
44.484299 -0.67964196 4.7198191
44.567375 -0.62407887 4.6820688
44.651806 -0.56811404 4.648489
41.825294 4.1647778 2.7259891
33.619644 -1.4247966 -1.066601
39.635639 2.7567127 2.7478089
39.718956 2.8146503 2.781009
39.800575 2.873086 2.804199
39.879223 2.9338109 2.819489
39.961239 2.9916685 2.829639
31.800167 0.94009566 1.6529289
33.661469 1.2783401 3.6248989
33.421963 0.7614429 3.9152889
39.403175 2.5742228 2.640559
40.847782 3.6404777 2.882519
45.693859 4.2271423 0.72073901
33.550388 2.9314692 -4.0540309
34.189465 1.8589809 -1.658161
45.854034 3.8075221 -1.275311
45.825363 3.7836988 -1.375801
40.037624 3.2242937 2.735759
40.120022 3.2821834 2.7456191
40.203297 3.3388534 2.766309
40.282967 3.3987148 2.7798989
40.365631 3.4561763 2.800679
40.525425 3.5746241 2.815989
40.685722 3.6939301 2.7826591
33.10638 0.52560878 3.861109
37.404976 2.0724876 -0.51164103
39.321697 3.0228016 2.2477491
39.24403 2.9608116 2.183419
39.71743 3.495482 2.2510691
39.798782 3.5539677 2.2753789
45.652279 4.1893692 -0.77519101
45.62487 4.1676865 -0.87592101
47.45491 1.1897039 2.088979
47.535244 1.2482791 2.0573189
47.6124 1.3066843 2.0776291
47.690968 1.3667705 2.123909
47.770283 1.4273391 2.148839
47.850334 1.4879706 2.174639
47.931084 1.5476897 2.1875589
48.012627 1.6065025 2.1875989
48.094818 1.6643896 2.174469
48.178097 1.7227919 2.152729
48.260071 1.7776277 2.1222789
48.345371 1.8350792 2.077239
40.050758 3.9697919 2.1269889
42.640888 4.0650177 2.8574891
41.657249 5.0815983 1.680429
34.810802 6.0011854 -1.072541
44.319939 4.7424088 -1.277311
44.547668 4.9282603 0.62165898
42.722134 4.1228108 2.844079
34.957718 6.4777579 -1.400591
35.153324 7.7156467 -2.412251
42.80978 4.18859 2.8164589
38.16898 2.4524183 -0.054021001
37.271996 2.0463276 -0.40876099
36.737606 1.7574494 -0.63089103
33.196732 2.4385576 -0.67563099
41.870651 1.9087068 4.0472889
41.329231 5.1785035 1.031559
33.235191 2.6030843 -1.504831
35.1436 4.7507968 -2.1932311
35.271477 3.7363081 -1.627171
39.447147 -4.4662781 1.939459
39.522186 -4.3978157 2.013829
39.605099 -4.346242 2.0431089
39.681934 -4.2771907 2.1036091
39.761406 -4.2132463 2.1533389
39.842957 -4.1436019 2.2458391
39.914036 -4.0765095 2.378299
39.988964 -4.0174222 2.492259
33.011681 2.3928597 -0.74050099
38.213211 2.3401799 -0.793841
40.696774 4.6175146 1.872359
40.413296 4.1153927 2.263829
42.776154 5.3363247 1.071959
38.83622 3.0343516 1.288789
40.518955 -3.5585318 3.1556189
40.597553 -3.4953437 3.2033689
40.676376 -3.4354916 3.229969
40.755604 -3.3770776 3.247479
40.835808 -3.3171864 3.258049
40.916328 -3.2582901 3.2559891
40.997902 -3.2008779 3.245379
41.081417 -3.1438594 3.2259791
41.162724 -3.086863 3.1970191
41.2439 -3.0324454 3.1408191
41.333878 -2.9788771 3.0604789
41.414421 -2.9246595 3.0044391
41.498123 -2.8692241 2.9548991
41.581627 -2.8129692 2.917449
41.665401 -2.7573807 2.8834291
41.746185 -2.6992066 2.867269
41.825165 -2.6378186 2.9053791
41.89854 -2.5740533 3.010329
40.843674 5.0550156 0.289969
40.754181 5.0127392 0.25435901
41.67313 5.2826262 0.58597898
42.428337 5.370759 0.83160901
42.718983 5.3534985 0.91613901
43.809265 5.146894 1.2015491
41.012241 4.5268211 2.2352891
36.226185 1.897614 0.27452901
40.960815 5.0794315 0.900379
42.637936 -1.8812549 4.4087391
42.716286 -1.8196452 4.4568691
42.797398 -1.7608356 4.4556389
42.877132 -1.697283 4.5030389
42.955162 -1.6346704 4.5604491
43.03252 -1.574522 4.6127291
43.109306 -1.5148411 4.6436992
43.188347 -1.4543359 4.669889
43.268066 -1.3940313 4.694469
43.349392 -1.3333371 4.7135792
43.429916 -1.2733886 4.725719
43.510098 -1.2148612 4.7296691
43.590431 -1.1555918 4.742259
43.670433 -1.0944153 4.7607288
43.750622 -1.035288 4.7760992
43.83136 -0.97655511 4.7795992
43.912529 -0.91722465 4.775579
43.994022 -0.85899115 4.7654691
44.074249 -0.79969025 4.7720189
44.155983 -0.74034238 4.7695389
44.236931 -0.68218648 4.7648392
44.319447 -0.62483072 4.7416391
44.401356 -0.56837356 4.7149191
44.484612 -0.51185131 4.6800389
44.566574 -0.45507312 4.6546092
44.650848 -0.39772367 4.6226492
41.905724 4.2271681 2.7212291
32.490559 1.8371115 -1.384401
32.659451 2.1155653 -3.5854609
35.09708 -3.0514803 -1.153861
45.314743 4.4579062 -0.77511102
33.258244 0.98797441 3.7144091
33.416119 1.7888198 3.1557691
31.204927 3.4715965 -5.7969708
40.046013 4.5217099 0.65317899
39.31818 2.5135803 2.5901389
40.92931 3.6985986 2.857619
41.012333 3.7532325 2.8401189
41.092155 3.8134496 2.806169
41.174412 3.8718555 2.780659
41.255215 3.9306855 2.7921889
41.33572 3.9896703 2.792479
39.397533 1.892264 2.901459
35.288582 7.9532228 -2.779911
46.164474 3.1518254 -1.7718509
36.908077 0.89986658 1.884199
36.989792 0.95515823 1.855949
40.443947 3.5175266 2.805419
40.605621 3.6338797 2.805249
33.502007 0.8200922 3.903199
33.474709 -2.1545599 2.836369
39.400196 3.0836649 2.2990689
39.561115 3.372395 2.1968589
39.635693 3.4367142 2.2142689
36.463287 0.74901593 -1.9945509
43.03838 3.7676687 -2.5208409
32.932945 -1.7263138 0.63306898
47.377007 1.3057077 2.078409
47.45549 1.3555982 2.0086491
47.536358 1.4156351 1.980749
47.60886 1.4753714 2.0142591
47.69062 1.5357246 2.050559
47.77013 1.5967929 2.0875289
47.850353 1.6570182 2.102139
47.932125 1.7166255 2.1138091
48.013977 1.7750819 2.1134291
48.096443 1.8335626 2.1015689
48.179634 1.8928664 2.0809691
48.262566 1.9477794 2.051199
44.310368 4.8415112 1.713699
39.588715 4.092679 0.56989902
34.522617 4.8612933 -0.513071
34.099686 4.5814581 -1.387171
36.160954 1.8182051 -0.35337099
33.286263 -1.9755363 0.135929
35.112957 -3.5231237 -0.65193099
31.860386 2.4007514 -3.4890611
34.255947 -0.89500761 4.2610989
40.232086 4.6154919 1.015759
39.721169 4.2111616 0.777789
39.219193 3.7298934 0.52712899
38.652966 3.0398943 0.213649
38.085682 2.3632209 -0.098030999
36.91032 1.814952 -0.86052102
36.824589 1.7555066 -0.89833099
39.698784 3.7539909 1.9795491
40.014004 4.3218184 1.465499
41.296688 -1.5334558 3.8994989
33.748337 2.3964376 -1.392311
33.13364 2.6286833 -1.5301909
36.721008 -1.2929882 -2.7232411
36.801701 -1.2331243 -2.737041
35.110012 -1.2922701 -1.578421
37.413841 -2.5730023 -2.7971711
39.963692 -0.65329492 -3.3845811
39.665218 -4.0912175 2.413039
39.741894 -4.0174513 2.4687991
39.819443 -3.9499729 2.5413289
39.909725 -3.8912768 2.6020291
39.979504 -3.8357837 2.6715691
38.453827 2.793113 0.248519
38.713409 2.6492076 1.468879
42.874073 5.3258848 1.099049
39.748131 3.9779754 1.749779
32.875675 3.1035464 -2.517561
40.436092 -3.4435105 3.167269
40.51403 -3.3829527 3.207459
40.593002 -3.3233526 3.2349589
40.672779 -3.2622631 3.2584291
40.752621 -3.2028942 3.2711191
40.834553 -3.1456175 3.267899
40.913631 -3.0855551 3.268209
40.997604 -3.0284154 3.2514191
41.08017 -2.9723206 3.211729
41.162613 -2.9173799 3.1580789
41.246101 -2.8634071 3.0937591
41.328381 -2.8084121 3.0398991
41.416138 -2.7534041 2.9839389
41.49826 -2.6975322 2.9445889
41.58136 -2.6420295 2.9092989
41.661587 -2.5838029 2.909909
41.740654 -2.5193357 2.9542389
41.813019 -2.4608877 3.0381291
41.301731 5.1959753 0.46005899
41.394329 5.2187519 0.488879
42.333611 5.3647289 0.801319
42.622673 5.3586798 0.88761902
43.911797 5.1122417 1.224539
39.374622 3.882251 0.31760901
36.124973 1.9355731 0.25082901
47.48938 2.0768688 1.633629
47.5751 2.1570206 1.674819
42.553879 -1.7640111 4.4542089
42.63216 -1.706665 4.4846392
42.713013 -1.6497259 4.475709
42.79414 -1.5890787 4.4839792
42.873447 -1.5264034 4.5290489
42.95126 -1.4646158 4.5792289
43.030014 -1.4023681 4.6264591
43.108322 -1.3426781 4.655139
43.189003 -1.2817379 4.6756291
43.26828 -1.2225946 4.6923189
43.348434 -1.1620587 4.7140989
43.428551 -1.102504 4.727829
43.508606 -1.0431046 4.7416892
43.588993 -0.98219013 4.7606692
43.669075 -0.92270911 4.7762189
43.750019 -0.86367917 4.777699
43.831532 -0.80565608 4.7651792
43.913029 -0.7481606 4.746099
43.99464 -0.68952298 4.7384191
44.076069 -0.63031244 4.7343488
44.157295 -0.57150686 4.7330289
44.239883 -0.51397586 4.7108688
44.321972 -0.45737553 4.6858592
44.40406 -0.40118349 4.6563792
44.485703 -0.3444984 4.6296792
44.568661 -0.28703356 4.6079292
44.651836 -0.23084164 4.573009
41.987434 4.2836919 2.705399
42.069317 4.3412051 2.6797991
42.150517 4.4003234 2.6568291
42.231434 4.4605961 2.6349289
42.313271 4.516592 2.6188891
37.130711 1.9133934 -0.921341
38.836086 1.980752 2.3580289
41.579407 3.9946589 2.8200591
40.253349 4.6886635 0.60789901
39.238804 2.4528203 2.5523989
39.156776 2.3945851 2.5058689
39.079746 2.3324375 2.452949
38.91188 2.2141862 2.3216591
38.997772 2.272511 2.391809
41.416264 4.0493002 2.782089
41.497746 4.107636 2.7577789
37.311615 1.99316 -0.85026097
41.661221 4.2229452 2.694699
41.743382 4.2776942 2.664269
36.827728 0.84841049 1.939769
41.107388 5.0976682 1.0908591
41.575134 5.1825047 1.248829
33.663544 0.93374705 3.861439
41.386013 5.1612911 1.187479
39.478638 3.144737 2.338109
39.482227 3.3118658 2.170819
32.887577 -1.7547023 1.233199
36.544144 0.82988763 -2.0150609
45.450287 4.390255 -0.57722098
45.70266 4.2339811 0.620749
47.299717 1.4231827 2.0801089
47.380749 1.4744303 1.969399
47.458492 1.526006 1.914609
47.535751 1.5847459 1.915849
47.613171 1.6438258 1.950719
47.691002 1.7043788 1.9877191
47.772343 1.7648847 2.022579
47.853256 1.8242412 2.0348091
47.935219 1.8826296 2.044219
48.016022 1.9424615 2.0356491
48.098564 1.9994133 2.0207989
48.181099 2.0563867 1.995409
33.010418 2.4782188 0.87730902
41.517525 5.2030697 1.093249
35.299141 7.4309897 -2.996031
43.379494 5.0498438 1.905049
44.467381 4.8620176 -0.77700102
44.527893 4.9140167 -0.47827101
38.568718 -3.9231834 2.9984491
38.207558 2.4136982 -0.488841
33.475845 3.073473 -3.7534111
41.315235 5.080821 1.435129
40.67358 4.877667 1.200989
40.146057 4.5474238 0.97585899
39.636395 4.1322637 0.73586899
39.137119 3.6380026 0.48327899
38.572079 2.9368763 0.168019
38.001068 2.3029826 -0.135901
37.176994 1.9624703 -0.749201
36.650028 1.7116197 -0.66737098
33.659664 2.9004805 1.006979
32.902477 2.8088093 -1.8511209
33.105171 2.7510116 -1.801491
33.309902 2.6780071 -1.755631
37.173656 -2.7549849 -2.7225411
37.332222 -2.6331782 -2.7890511
35.34576 -1.1061558 -1.769691
37.493946 -2.5139616 -2.7991309
39.893192 -0.70969701 -3.3766611
35.038979 5.2299018 -2.3215909
35.111263 3.6134806 -1.569041
38.131332 -2.2009823 -3.0979609
39.180611 -1.4320719 -3.096971
39.807522 -3.7790201 2.715759
39.899342 -3.7105803 2.7884991
36.412544 1.8285649 0.026829001
42.972408 5.3163671 1.1267591
40.646847 4.385324 2.1013789
40.196198 -3.4564099 3.0565491
40.27422 -3.3931231 3.119029
40.351852 -3.3316507 3.1719589
40.430328 -3.2706912 3.2117989
40.510002 -3.2082815 3.2460589
40.589527 -3.1479456 3.2713289
40.669491 -3.0883527 3.283169
40.750519 -3.0298023 3.2859089
40.831924 -2.9718335 3.2740691
40.914749 -2.9146123 3.2507889
40.995407 -2.8582585 3.2194691
41.080669 -2.8026044 3.1749589
41.162239 -2.7467525 3.1327591
41.246876 -2.6923671 3.0704391
41.331047 -2.6370487 3.020849
41.412762 -2.5810409 2.9802091
41.495419 -2.5236931 2.954349
41.576637 -2.4639912 2.952179
41.65456 -2.4079342 2.9870989
41.725693 -2.3488612 3.0808389
41.76627 5.3014727 0.617939
42.524841 5.3675737 0.86037898
43.111286 5.3091116 1.024719
44.118389 5.0289693 1.267619
44.43214 4.8875875 1.330099
32.619625 2.0940456 -0.76800102
47.395107 2.0648386 1.589759
42.653309 5.1318703 1.847149
32.161766 1.7005773 0.47751901
42.469051 -1.648772 4.5034089
42.547764 -1.5884939 4.5405788
42.62888 -1.5306587 4.5278988
42.711403 -1.4778856 4.490849
42.791443 -1.416544 4.5105591
42.868816 -1.3554814 4.5623889
42.948452 -1.292407 4.6062989
43.02861 -1.230275 4.6388292
43.107944 -1.1701745 4.6637392
43.187756 -1.1093333 4.6861091
43.267113 -1.0509474 4.7048192
43.347355 -0.98984444 4.7248392
43.427437 -0.9305855 4.7388892
43.507793 -0.87109053 4.7524791
43.588333 -0.81169653 4.7677488
43.669533 -0.75245643 4.7708588
43.750141 -0.69343138 4.7604289
43.832268 -0.63604963 4.740109
43.914566 -0.57859445 4.7175188
43.996651 -0.52074814 4.6966891
44.077557 -0.46226358 4.695569
44.159142 -0.40444553 4.6841788
44.242111 -0.34696066 4.6657791
44.323761 -0.28945351 4.6347289
44.404728 -0.23292613 4.6186891
44.486374 -0.17488098 4.6062388
44.570335 -0.11821938 4.574059
44.652328 -0.062269688 4.535079
36.905106 0.5644629 2.214829
36.82431 0.50984132 2.2697189
42.88768 4.2492681 2.7818589
33.917675 -0.26032495 4.4383092
32.091923 -0.13554406 0.92347902
44.199673 4.8316665 -1.179521
31.796453 0.33481383 1.621339
41.498337 3.9362509 2.8445289
32.675144 2.2235034 1.0200191
34.225883 3.0568619 1.496689
40.606155 4.5830708 1.837779
32.377216 1.8281868 1.735299
38.832638 2.1533983 2.270659
38.75885 2.0902712 2.2275791
38.680065 2.0295684 2.1886489
37.956242 1.4963881 2.1228189
37.873699 1.4406188 2.138659
41.824383 4.3395138 2.645139
35.175583 2.6156094 0.34293899
38.407001 -5.0732403 1.266239
35.199802 2.6346893 0.243449
32.243153 1.9922111 -2.5859909
32.797924 1.9917006 2.335149
39.561043 3.2028766 2.3741591
45.581978 4.316855 0.72078902
45.585358 4.3218184 0.62148899
34.186478 -2.3380332 0.739209
34.552624 -2.9145167 0.14403901
42.892456 5.2911577 1.382179
32.984833 2.2855928 1.998019
42.638565 5.3309193 1.171839
47.380253 1.6358709 1.861479
47.458912 1.6923409 1.836339
47.536423 1.7511768 1.859409
47.614655 1.8116248 1.895689
47.692608 1.8732178 1.923509
47.77449 1.932092 1.945299
47.855488 1.9920506 1.958069
47.936848 2.0507421 1.957819
48.018616 2.1091976 1.945899
48.101059 2.1678743 1.922999
48.184414 2.2258997 1.8990591
48.26944 2.2849698 1.853519
34.603046 4.9208412 -0.52520102
45.289307 4.4394264 -0.87673098
33.152046 -0.91683054 -0.86690098
46.294586 3.4484921 1.520789
46.073521 3.8123782 1.121039
41.221817 5.1723995 0.71261901
32.26651 2.0117788 -2.2851911
41.693329 5.119555 1.556329
41.222176 5.0596852 1.402599
40.58427 4.8326778 1.164739
40.06015 4.4987307 0.93920898
39.552288 4.0526156 0.69416898
39.053528 3.5370963 0.43769899
38.492264 2.8330302 0.122549
36.998436 1.8713067 -0.82212102
37.086834 1.9181023 -0.78584099
42.025742 4.7447634 2.2944989
32.423962 2.7743683 -1.998361
32.434475 1.8182447 1.895509
32.174198 1.5597982 1.777539
33.510067 -0.11494589 -1.350011
38.329372 -0.1002149 -2.949651
37.573212 -2.4537001 -2.824791
37.651321 -2.3900406 -2.898901
39.807938 -0.76825142 -3.352741
34.229843 -1.5983822 -1.112041
41.696747 0.54455799 -4.5612011
41.940624 0.71985555 -4.5128708
38.144089 -5.1266952 1.118369
36.21769 -0.60727155 -2.3699911
42.519962 3.3183358 -2.794641
41.305565 2.0967257 -3.179611
43.070534 5.3037319 1.153659
37.338783 1.920193 1.059939
40.032722 -3.3982513 3.065769
40.111012 -3.3364749 3.1167891
40.188717 -3.2809839 3.1516089
40.268059 -3.2160091 3.1966989
40.347046 -3.1545153 3.2349091
40.42638 -3.0947869 3.263109
40.506546 -3.0331068 3.280349
40.587097 -2.9746449 3.2819791
40.66869 -2.9172931 3.277879
40.749535 -2.8582475 3.273499
40.830757 -2.8006082 3.259269
40.911327 -2.7428367 3.243609
40.993507 -2.6860578 3.219589
41.076988 -2.6306226 3.1692791
41.161777 -2.5760398 3.1074691
41.244633 -2.5208852 3.0549591
41.329033 -2.4655604 3.0065589
41.410603 -2.4073961 2.9922891
41.491898 -2.3484933 2.993289
41.56786 -2.2954545 3.0313089
41.642197 -2.2110014 3.187459
43.306671 5.2801199 1.078499
43.20916 5.2969103 1.051749
44.01342 5.0742102 1.246559
38.996304 3.2422512 1.3780791
40.556335 3.8794003 2.5518191
38.697155 3.1020384 0.38497901
32.744003 3.2433519 -2.8150611
32.613708 3.193928 -2.7203109
42.306599 -1.5975697 4.4956889
42.385155 -1.5316688 4.5478692
42.463924 -1.473748 4.5769892
42.545364 -1.4170377 4.5692391
42.62846 -1.3620789 4.5230289
42.708378 -1.3034737 4.5381689
42.786388 -1.2397487 4.5949888
42.866795 -1.1764101 4.6249189
42.945026 -1.1208814 4.6481791
43.025043 -1.0586189 4.6808691
43.105038 -0.99716234 4.7024789
43.185196 -0.94071496 4.722959
43.265205 -0.8786304 4.742599
43.346077 -0.81950343 4.7572188
43.426449 -0.75935268 4.769269
43.50679 -0.69869566 4.7785888
43.58712 -0.63928223 4.7733388
43.670448 -0.58199072 4.7567892
43.751347 -0.52378404 4.7417388
43.83506 -0.46676838 4.7121491
43.914921 -0.40946448 4.6912489
43.996727 -0.35140157 4.682209
44.077251 -0.29273546 4.6777892
44.159954 -0.2357024 4.6601291
44.240299 -0.17702949 4.654809
44.322491 -0.11898446 4.6456089
44.403599 -0.061055183 4.6309891
44.484913 -0.0039310455 4.6047091
44.570423 0.05252099 4.562819
44.555962 4.5700169 -1.3778009
44.713974 4.7008896 -0.87858099
40.167416 4.6303091 0.56966901
40.389336 4.7726307 0.80913901
33.725418 2.8921354 1.460219
41.930614 5.2923245 1.0927989
45.163055 4.5230966 1.022049
36.986275 0.62479568 2.168299
41.416645 3.8791227 2.871279
41.336597 3.8168869 2.889729
41.256374 3.757242 2.8887091
41.173485 3.7024579 2.918859
33.15416 3.1016784 -2.7234311
34.572304 6.2239394 -1.638971
35.005867 -2.6257586 -1.255441
32.756248 -1.35198 0.43062899
37.793152 1.3807387 2.1494989
38.926151 3.3460381 -0.074881002
33.353214 2.8674452 -2.281271
32.443085 1.0834775 2.846329
36.286186 4.5959101 -1.361871
43.92981 5.0574694 1.503659
32.488209 2.2351491 -1.365531
39.644444 3.2603791 2.4091189
45.567513 4.3077917 0.82183897
45.59388 4.3280721 0.521339
32.791142 -1.1472762 2.3296289
34.899216 -0.24717927 4.411449
42.081146 5.2936611 1.2808191
45.253933 4.4131064 1.3212889
45.347248 4.4872084 -0.477391
47.30109 1.7499835 1.837809
47.379852 1.8003597 1.757759
47.460236 1.8605161 1.748449
47.53384 1.9191976 1.772869
47.616055 1.9795363 1.819549
47.694969 2.0409133 1.845739
47.777142 2.0993409 1.867569
47.857948 2.1589286 1.868669
47.939171 2.2189305 1.858879
48.021301 2.2768705 1.845879
48.103954 2.3351278 1.822229
48.187088 2.3887424 1.7917089
44.506882 4.5295377 -1.5780309
44.710293 4.8804102 0.221789
32.539928 -0.49767327 0.12664901
46.316669 3.4675031 1.421979
31.137684 3.4226177 -5.695961
46.265831 3.4241521 1.620579
39.960487 4.4435034 0.61143899
41.501888 5.1137147 1.498099
41.596897 5.1242762 1.528639
40.495258 4.7816057 1.128379
39.975677 4.4287047 0.89925897
39.468998 3.9715846 0.65242898
40.208973 3.9047709 2.308949
40.905476 4.7800212 1.824249
32.641136 2.9027359 -2.0538311
32.54668 2.8925753 -2.084341
39.443798 3.5262139 1.860059
39.358253 3.4570165 1.820639
33.839439 2.9894395 1.077769
35.720455 0.24751163 -1.762651
39.853565 1.0335035 -3.191571
39.728527 -0.82867682 -3.328481
39.648594 -0.88871813 -3.3154409
39.569176 -0.94911337 -3.3012409
34.317745 -1.7175807 -1.057151
35.657913 4.3928351 -1.943691
40.721985 -6.7649317 3.606909
42.184723 0.89680815 -4.4682708
42.02219 0.77766991 -4.4988909
42.438484 3.2609937 -2.821991
41.2248 2.0385413 -3.184031
42.362225 2.855161 -2.9543109
32.740433 2.4878688 -1.240431
32.977612 3.0654948 -2.4950809
39.945709 -3.2839189 3.134979
40.024494 -3.220252 3.183249
40.10347 -3.1588056 3.2210691
40.182621 -3.0956621 3.254189
40.262527 -3.0380149 3.2715089
40.343296 -2.9802241 3.2765391
40.424122 -2.9214766 3.276799
40.505127 -2.8624353 3.277389
40.585167 -2.8025398 3.2830491
40.665916 -2.743737 3.282979
40.746349 -2.6850772 3.2804091
40.829403 -2.6278996 3.2612989
40.910332 -2.5703998 3.2463789
40.99477 -2.5148733 3.198669
41.079391 -2.4600918 3.135129
41.161118 -2.4055099 3.0815189
41.243999 -2.3490138 3.0430591
41.327293 -2.2930701 3.0228691
41.406944 -2.2308502 3.043539
41.482449 -2.1757562 3.091269
41.557644 -2.0990489 3.2612791
43.406105 5.2579274 1.103919
43.707108 5.1790972 1.1782089
38.087666 2.2773967 0.91363901
32.459801 1.4229321 2.5835791
34.172691 2.9250169 2.0369489
38.798775 2.4989963 1.905329
32.517448 3.1932092 -2.749651
32.710209 3.192347 -2.6917009
42.222691 -1.4831707 4.5332088
42.301174 -1.4212172 4.5809989
42.381008 -1.360014 4.6021891
42.464394 -1.3054016 4.5790792
42.545498 -1.2471564 4.5447989
42.625507 -1.1847 4.591289
42.702393 -1.1250201 4.6448488
42.782486 -1.0583243 4.682929
42.860889 -0.99835598 4.721139
42.939781 -0.93903685 4.760829
43.01947 -0.88095379 4.7878289
43.09853 -0.81761694 4.8215389
43.179085 -0.75866914 4.8348889
43.260914 -0.7017628 4.8399992
43.340683 -0.64034879 4.8476791
43.423481 -0.58273721 4.8376389
43.505096 -0.52515972 4.8140292
43.587448 -0.46746325 4.7900891
43.669476 -0.41013002 4.7661991
43.75103 -0.35265779 4.7417488
43.833931 -0.29649377 4.7095389
43.914494 -0.23862839 4.6935191
43.996346 -0.18108833 4.6845489
44.075928 -0.12114167 4.6911092
44.157372 -0.062463164 4.6931691
44.238899 -0.004442215 4.6803489
44.322201 0.053211451 4.6585288
44.404694 0.10988379 4.6220689
42.406864 4.4028916 2.6979189
42.31361 4.3449025 2.7170191
42.151081 4.229043 2.743099
42.069569 4.1704397 2.766809
42.232021 4.2879729 2.7319191
41.987415 4.1154466 2.774039
41.907169 4.0541801 2.781419
41.333447 3.4818482 3.109539
35.381409 -2.3839362 -1.751631
37.066483 0.68109238 2.153379
37.145931 0.73992908 2.1657691
37.22805 0.7971189 2.1880989
37.308357 0.85657847 2.2008891
41.091335 3.6447506 2.956419
40.280472 3.0609379 2.9508891
40.364204 3.1180654 2.980849
34.70295 -3.295399 1.044399
37.710842 1.3241519 2.1526091
32.544876 -0.49716854 0.027358999
39.086811 3.5426135 0.015009
39.800797 2.3608954 2.972959
34.842545 2.5583124 1.446079
33.255493 3.0619531 -2.7019711
39.803268 3.3809638 2.4854591
39.723278 3.3209953 2.4475391
34.573666 -3.058929 0.842969
32.419167 -0.22818875 2.8230791
44.79763 4.7735357 0.92245901
34.818398 -0.30552697 4.440999
34.561134 0.30902958 -1.794551
33.748055 0.4798336 4.1450691
33.096161 1.0422754 3.5885191
47.214005 1.8596883 1.842049
47.303158 1.9148831 1.721529
47.384064 1.9720075 1.649529
47.461319 2.0290875 1.647599
47.539539 2.0861285 1.681259
47.620209 2.1451221 1.727319
47.699444 2.2061124 1.753379
47.778473 2.2675996 1.7569391
47.860027 2.3270624 1.757439
47.943436 2.3826165 1.7531689
48.024452 2.4458299 1.723569
48.108158 2.4974489 1.703159
32.556072 -0.14998055 -0.17467099
44.302567 3.9777641 2.7886889
46.336079 3.4839165 1.322399
39.510036 -4.5425615 1.7073489
32.852776 -1.2692437 2.7306089
34.81562 -3.5462263 0.74656898
45.106773 4.4700913 -1.075451
45.236816 4.5797777 -0.27805099
41.407631 5.1025848 1.467259
41.128044 5.0482769 1.371559
33.803314 3.1818519 -0.196771
40.16748 4.1050277 2.045589
41.929852 4.7247849 2.264359
32.838093 2.8762448 -2.000351
32.737782 2.9007668 -2.025481
35.925865 2.0407197 0.50590903
31.850018 1.1189554 1.607469
32.655087 1.7200663 2.5419691
32.844242 3.2192707 -2.7899311
38.410717 -0.042351186 -2.9344611
34.727089 0.25049353 -1.800871
34.670444 2.1849482 -1.0798711
34.544544 -1.3535461 -1.382681
39.934113 1.0927675 -3.1811211
35.020687 -0.99289918 -1.634941
34.948158 5.3488321 -2.3003311
35.600693 -1.6261141 -1.9718111
39.100506 -1.4905685 -3.0763209
42.103436 0.83653724 -4.4875512
41.777737 0.60456133 -4.552351
41.859062 0.66191924 -4.537571
41.143936 1.9800361 -3.186131
33.117432 2.9432273 -6.5447712
42.266426 0.95411432 -4.4524412
34.469395 0.60281229 -1.7462209
39.859657 -3.1636746 3.2089491
39.938286 -3.100455 3.256839
40.017025 -3.0392437 3.2949691
40.097172 -2.9806676 3.3104589
40.17886 -2.9249635 3.3068089
40.259418 -2.8640974 3.2960391
40.341091 -2.8065648 3.2873991
40.422016 -2.7478907 3.286669
40.502178 -2.6880426 3.2960491
40.583164 -2.6294274 3.2986491
40.663967 -2.5707695 3.2981091
40.744801 -2.5130401 3.283329
40.826923 -2.4559722 3.2588489
40.911072 -2.4005435 3.2098291
40.99263 -2.3458495 3.154629
41.077866 -2.290005 3.1081891
41.160904 -2.2336769 3.071229
41.242508 -2.1763415 3.0603089
41.32196 -2.1154284 3.0837691
41.389442 -2.0502796 3.1473989
44.327461 4.9345226 1.309159
44.219055 4.98703 1.289459
39.077248 3.3455601 1.422169
33.918514 3.0332937 0.82068902
47.181683 2.182476 1.561429
39.80941 3.9244771 1.903239
32.234585 3.1534534 -2.8422511
32.80851 3.1787248 -2.6654911
34.138542 3.1419802 0.47424901
42.139561 -1.365465 4.576539
42.217094 -1.3094537 4.608809
42.29847 -1.248144 4.6186991
42.382404 -1.1909697 4.5977588
42.451382 -1.1342404 4.5857091
42.540558 -1.0637143 4.6461191
42.618656 -1.0090736 4.692009
42.697426 -0.945876 4.7372789
42.776527 -0.88050556 4.791399
42.854584 -0.81985152 4.8424191
42.933372 -0.76180518 4.8715191
43.013245 -0.69904041 4.903039
43.093391 -0.64072263 4.9189391
43.17482 -0.58300805 4.922389
43.256622 -0.52415729 4.9229488
43.338306 -0.46591067 4.909359
43.420925 -0.40793431 4.8859191
43.506958 -0.35262406 4.8441191
43.58535 -0.29459369 4.8125792
43.669716 -0.23869801 4.768949
43.753273 -0.18328226 4.7238088
43.832306 -0.12562537 4.704299
43.912106 -0.066114068 4.7147989
43.992733 -0.0064971447 4.727509
44.073757 0.052419424 4.7277889
44.154591 0.11054289 4.7128191
44.239143 0.16746187 4.6827488
44.321709 0.22400093 4.646069
41.742798 3.9363637 2.852839
32.604515 4.1831474 -6.3544211
34.325634 -0.13969469 4.3642688
40.524822 3.0664086 3.082659
40.606415 3.1245768 3.0934989
40.686207 3.1844041 3.095279
40.766335 3.2436066 3.108429
41.661152 3.8808751 2.8813591
34.069328 3.8704169 -0.266541
34.29446 4.3256955 -0.35190099
32.985367 -0.85956764 -0.57082099
37.203415 1.1945405 -2.125701
34.821815 -0.82589853 4.424479
37.388103 0.91637057 2.2268789
37.548962 1.0358382 2.2534289
40.200455 3.000824 2.936269
34.819794 -0.65184593 4.4637389
37.629242 1.2654839 2.1411791
44.292057 4.9102831 1.523499
34.475754 3.0908186 0.70989901
39.960083 2.4811993 3.025249
34.806957 2.5314674 1.545409
43.663902 5.1814508 1.3081191
42.562344 5.2892613 1.424909
44.923447 4.6867056 -0.77709103
44.736462 4.5229154 -1.281991
34.512321 -2.2928853 -0.45795101
40.195087 -0.46091372 -4.0554609
40.012089 4.1274772 1.860419
45.230957 4.5789804 0.421749
33.259869 1.1557791 3.6074491
33.177116 1.1002293 3.5997989
32.89753 -1.4054494 2.8313191
47.221016 2.0262251 1.704939
47.301479 2.0826461 1.570369
37.115028 6.917222 -2.868361
45.12368 4.6687732 -0.078331001
33.834095 2.3720956 -1.752031
47.622978 2.3111355 1.613089
47.703243 2.3715537 1.638489
32.98159 -1.6943066 0.333399
47.864754 2.4914052 1.628829
47.947308 2.5492346 1.6163189
34.309891 4.7302237 -1.680091
34.128166 3.8904219 -1.276521
31.53223 4.4053011 -6.6856108
32.357357 2.7305503 -2.030031
38.548645 2.4753611 1.3843091
35.239407 7.6252871 -2.293391
45.929028 3.5012724 -1.772451
32.767181 3.7180305 -5.1542611
43.990406 3.7552917 3.112149
42.850967 5.0925388 1.8968689
42.553482 5.1536522 1.821399
41.789803 5.1207991 1.585819
40.632717 4.6743097 1.722279
34.040565 3.5077477 -0.057371002
33.558075 2.59936 -1.842801
33.452675 2.6598616 -1.861661
33.038666 2.8282764 -1.950091
31.61027 0.79359722 0.58433902
37.805355 2.0277882 1.220849
39.286533 3.7673233 -0.021601001
39.20369 3.6662192 -0.067881003
39.123657 3.5724735 -0.111951
38.492149 0.0160712 -2.930711
42.839001 1.5265634 -4.1858311
35.70697 7.1901007 -3.251441
35.773434 5.5850248 -2.5354609
34.452637 3.4953959 -1.380391
34.078781 -0.047726393 -1.6912611
37.400948 -4.9213929 1.551549
38.976074 -3.6374087 3.1038589
39.019775 -1.5505197 -3.084821
40.820263 1.744503 -3.2199409
42.275291 3.1437862 -2.869931
34.553673 3.0175173 -1.209031
34.141808 0.54415917 -1.712311
41.062988 1.9206064 -3.1950309
41.468204 2.2147663 -3.1468511
39.617733 -3.1710906 3.1585491
39.696117 -3.1101239 3.211319
39.774605 -3.0458078 3.2577989
39.853607 -2.9852684 3.2973189
39.933041 -2.9259496 3.3264689
40.013432 -2.8660231 3.3385389
40.095005 -2.8088827 3.329509
40.176559 -2.7504444 3.315589
40.258095 -2.6922817 3.3005691
40.338669 -2.633322 3.298229
40.419987 -2.5746739 3.302639
40.500011 -2.5150976 3.312149
40.580616 -2.4563007 3.3096089
40.663727 -2.3990319 3.2902589
40.745552 -2.3420177 3.2636189
40.828163 -2.2859514 3.223979
40.911655 -2.2307048 3.1730189
40.993626 -2.1746228 3.1319189
41.077332 -2.1185791 3.097609
41.158043 -2.0589116 3.0948889
41.236431 -2.002233 3.127599
41.30732 -1.9501233 3.2010291
39.65683 3.4727135 2.2028689
38.325069 2.3340609 1.143069
38.616047 2.999228 0.339329
35.345516 7.9780254 -2.8361909
34.269817 4.3920913 -0.39759099
32.421078 3.1926584 -2.7787609
33.013382 3.107058 -2.6199811
33.178352 2.5794632 0.65681899
41.978363 -1.3113476 4.5633092
42.055897 -1.2507896 4.613379
42.135334 -1.1912208 4.6386089
42.215981 -1.1332464 4.6406589
42.296558 -1.0763211 4.6458688
42.375473 -1.0105337 4.6828389
42.455597 -0.95443183 4.7037792
42.535263 -0.89379621 4.727109
42.61478 -0.8318702 4.7610788
42.693596 -0.7697618 4.8081088
42.772026 -0.70827937 4.8576789
42.850021 -0.64883256 4.8982792
42.93034 -0.58459246 4.938549
43.009922 -0.52925646 4.9526291
43.090618 -0.4666363 4.967339
43.171932 -0.40808809 4.970139
43.254066 -0.35007036 4.9590788
43.336742 -0.29238892 4.9347091
43.420151 -0.23556066 4.899559
43.504807 -0.17933142 4.8540392
43.58696 -0.12476051 4.7915788
43.670071 -0.069975853 4.7332592
43.748875 -0.011623383 4.7255988
43.829594 0.047641873 4.7432389
43.90995 0.10749459 4.7537389
43.991138 0.16637087 4.7532492
44.074387 0.22416961 4.7336588
44.156319 0.2814244 4.7066889
39.237995 2.1130574 2.7087989
39.796131 2.5342646 2.9274991
39.559601 2.1815786 2.897109
39.479134 2.9741478 2.4651189
31.715286 3.8512938 -6.2973809
39.636631 2.4102218 2.829869
39.716225 2.4738605 2.889699
39.880764 2.592416 2.958359
41.171528 3.3639588 3.143739
38.771389 3.1725338 0.13171899
34.096554 -1.018846 4.0973091
34.736725 -0.5371716 4.4721689
41.314533 5.1920505 0.74493903
33.496841 1.8479629 3.131099
34.741013 -0.88510084 4.3978391
37.469208 0.97566819 2.2514689
40.117733 2.943815 2.9276791
34.900852 -0.59221172 4.4583888
37.548267 1.2061584 2.128269
33.259186 -1.9872988 1.636119
40.222401 -0.10625552 -3.955291
39.88002 2.4212997 2.9994791
34.564957 -3.0653813 0.74322897
33.846771 -0.85200047 4.2662988
45.403633 4.3525548 -0.87791097
44.893963 4.6623163 -0.87697101
33.929276 2.2414992 -2.5533011
44.991917 4.7430005 -0.078221001
33.515903 -0.38251543 4.3262291
33.831856 0.19610071 4.3028688
45.990845 3.9263389 0.921139
33.01936 0.98091435 3.5718091
34.653965 -2.3489318 1.640339
45.836525 3.6062005 -1.771911
47.140297 2.1398118 1.6911989
37.246925 6.4502702 -2.7698109
35.759068 0.38322723 -1.711591
34.975666 2.4652929 1.2450989
32.901829 -1.7465715 0.832169
45.509674 4.2603302 1.3220789
45.527809 4.2743826 1.221539
45.61393 4.3449273 0.121649
41.549297 2.2725697 -3.1323309
45.843632 4.1679039 -0.078240998
45.834282 4.1605783 0.121419
45.832813 4.1587567 0.22107901
32.277023 2.669713 -2.1118109
37.044231 1.921019 -0.65043098
43.788555 5.0756044 1.607179
35.320892 7.6865931 -2.4274609
32.736702 -1.5279856 1.131119
40.712585 4.3257933 2.2495091
36.34079 1.8486204 0.59348899
37.710838 2.0163476 1.189649
41.820324 1.9558964 3.853749
43.480808 5.0143094 1.928499
43.686722 4.9323978 1.973419
43.790039 4.8836098 1.993709
36.587036 1.771661 0.50677902
33.666397 2.5280013 -1.826161
32.721676 2.1136782 1.888049
36.410358 7.7487316 -3.8542609
33.137459 1.7807937 2.9958291
39.448139 3.9425859 0.064548999
39.368793 3.8587332 0.022799
34.348568 3.0819683 1.104669
33.280304 2.6712112 1.284699
42.758179 1.4682878 -4.1880012
42.676605 1.4087132 -4.209621
38.943119 -4.5303192 2.196209
38.212032 -2.1402106 -3.1063111
38.293522 -2.081661 -3.093101
38.374844 -2.0228987 -3.0833311
38.7239 -3.643681 3.212429
38.803143 -3.581533 3.2210491
38.884903 -3.5245156 3.2096391
38.975861 -3.4613371 3.1966791
39.046982 -3.4070449 3.1958489
39.127792 -3.348331 3.2100289
39.218094 -3.2781758 3.252579
39.298096 -3.2179232 3.274219
39.366486 -3.1661837 3.285279
39.450897 -3.1137314 3.267839
39.530659 -3.0527892 3.2644689
39.611412 -2.9949825 3.267519
39.690723 -2.9317493 3.2860291
39.770329 -2.871613 3.312489
39.849583 -2.809123 3.345819
39.929535 -2.7500579 3.3595691
40.010246 -2.6913707 3.3598289
40.091541 -2.6337502 3.3467889
40.174694 -2.577168 3.329179
40.254402 -2.5179353 3.3198991
40.336269 -2.4600616 3.309309
40.417892 -2.401304 3.3099589
40.498215 -2.3426988 3.311029
40.580109 -2.2846212 3.3016491
40.662487 -2.2275515 3.275809
40.740456 -2.1726689 3.238909
40.827335 -2.1164331 3.1830389
40.907417 -2.0590425 3.148349
40.99218 -2.0007327 3.1282589
41.073578 -1.9402355 3.1426489
41.148575 -1.8905305 3.1847889
41.225807 -1.8058273 3.3738389
38.949478 2.9842541 1.605629
33.42802 2.5363894 2.1760089
41.052227 5.1046867 0.933029
36.250908 1.8699656 0.864959
32.327957 3.1745682 -2.810231
33.115417 3.0688331 -2.5978711
40.780346 4.2274394 2.3964789
33.296951 -1.3150024 -0.66611099
41.893993 -1.1997457 4.5920191
41.972145 -1.1386631 4.6415291
42.052174 -1.077949 4.664659
42.131882 -1.0170343 4.6870689
42.211452 -0.95538932 4.7205892
42.290901 -0.89661658 4.749229
42.371235 -0.83754754 4.7627492
42.451832 -0.77728224 4.7723289
42.532257 -0.71980244 4.7758288
42.611282 -0.66043329 4.8036189
42.690689 -0.59596944 4.8570189
42.768093 -0.53657985 4.9005289
42.847542 -0.47503698 4.9357891
42.927105 -0.41507983 4.9631391
43.008297 -0.3536557 4.9805489
43.089386 -0.29495001 4.9846692
43.170849 -0.23585176 4.9811692
43.252357 -0.17775655 4.9682589
43.336742 -0.12043917 4.9361992
43.420094 -0.064517975 4.887939
43.504021 -0.010264039 4.815279
43.587074 0.043305159 4.7419491
43.667374 0.10187888 4.7426891
43.746525 0.16194415 4.762969
43.827335 0.22079396 4.7659092
43.908592 0.27968121 4.7637091
43.989735 0.337448 4.7497792
44.071583 0.39461577 4.7244892
38.599403 1.630675 2.3441689
39.31778 2.1734953 2.746779
41.415096 3.5400572 3.0851591
39.474773 2.124768 2.8673191
39.641876 2.2401185 2.9078691
39.397491 2.233758 2.7730291
39.477062 2.2935488 2.7871389
39.558487 2.3520875 2.798419
41.090611 3.3055406 3.1560791
41.008774 3.2491722 3.1719289
40.216572 4.6589785 0.733419
40.927956 3.3602903 3.095979
41.009361 3.417829 3.082469
33.560322 2.1351168 2.882369
34.65942 -0.94524539 4.3877592
38.278202 1.5639298 2.1909189
40.04015 2.8818839 2.9217789
34.983093 -0.53357339 4.4380288
37.471546 1.1432459 2.1219189
32.620193 4.1950331 -6.4534411
36.867847 1.8182073 -0.72520101
36.398045 4.8012815 -1.234521
32.961113 3.8499076 -6.8751011
33.926579 -0.78833103 4.305119
41.091919 4.3260002 2.502619
32.379456 0.23404932 0.024369
32.723221 -1.3751132 0.63151902
43.324856 5.2469783 1.361439
34.419819 5.7745953 -1.348261
33.750534 0.13973641 4.3194389
33.420383 1.1020701 3.709929
32.94379 0.91983056 3.542799
45.868488 3.6351588 -1.674901
43.794838 3.6067779 3.284569
43.422943 2.1751828 4.2644491
32.907696 3.628901 -5.0538311
33.235489 3.0779507 -5.853581
45.898335 3.8500404 1.521379
44.316261 4.9237895 -0.77798098
32.232811 -0.027002573 2.023489
40.162098 -0.14830086 -3.8533111
33.251022 1.1743195 -1.684171
45.604141 4.3367629 0.32164899
45.601467 4.3329906 0.421119
45.611874 4.3421602 0.22141901
44.452488 4.6676416 -1.277451
39.626633 4.1318479 0.44565901
32.687195 2.2981412 -1.009071
35.015289 7.4025083 -2.1309209
33.094486 -1.9386048 1.435299
33.204601 2.4663994 -0.37564099
32.486664 2.0361316 0.34562901
34.265694 3.0742898 1.366969
43.079468 5.1276536 1.829139
34.443459 5.4741015 -0.978441
34.103123 2.8172426 2.286489
32.53035 2.0367219 1.525519
41.130527 4.657506 2.151489
36.410851 1.7705997 1.042729
39.698589 4.2035336 0.195199
39.615486 4.1227598 0.15304901
39.531528 4.0332084 0.108729
34.649578 5.9014773 -1.106721
41.129761 1.4211709 3.883739
38.845901 3.1743846 -0.42541099
38.766941 3.0702953 -0.47145101
37.144089 -5.1115594 0.427829
33.738754 -2.319448 0.86918902
38.318642 -3.7652545 3.184829
38.397652 -3.7026825 3.2210791
38.47646 -3.6390839 3.2552691
38.556416 -3.5823531 3.286499
38.635529 -3.520041 3.3086791
38.716564 -3.4625227 3.310919
38.798866 -3.4061279 3.301219
38.880836 -3.3490937 3.2902689
38.961052 -3.2890468 3.2876091
39.039833 -3.2266173 3.309679
39.119862 -3.1669273 3.336309
39.197525 -3.1022451 3.367099
39.280205 -3.0475142 3.375669
39.363178 -2.9920993 3.3692391
39.446182 -2.935343 3.346859
39.526424 -2.8763022 3.331229
39.606873 -2.8168511 3.312789
39.687363 -2.7567043 3.321769
39.766869 -2.696702 3.350559
39.846649 -2.6356845 3.371809
39.926735 -2.5759532 3.384269
40.00724 -2.5173268 3.382879
40.090229 -2.4609623 3.3663089
40.172657 -2.4038072 3.341989
40.253979 -2.3467493 3.3131189
40.335529 -2.2887747 3.299089
40.416828 -2.2299302 3.3025391
40.49736 -2.1712718 3.299829
40.578465 -2.1135566 3.285069
40.6614 -2.0574913 3.2472889
40.745682 -2.0015464 3.200449
40.827141 -1.9444387 3.171479
40.908108 -1.8827207 3.1617689
40.987961 -1.8337274 3.172889
41.05711 -1.7902621 3.2273591
32.98312 2.4557884 1.300629
34.111225 2.963052 1.879519
37.438961 1.4723465 1.887369
31.616472 0.87461662 0.75229901
33.479408 2.7885523 0.64173901
38.858818 3.2976108 0.47396901
33.091465 2.5217752 0.61949903
38.972866 3.3364697 1.097579
41.732224 -1.1458235 4.5787492
41.810013 -1.0864376 4.6311288
41.889301 -1.0253344 4.6673088
41.969414 -0.96407551 4.6888089
42.049065 -0.90262169 4.7227392
42.128555 -0.84084946 4.7561188
42.207787 -0.7820996 4.7853289
42.287563 -0.72418803 4.8031392
42.368145 -0.66187221 4.8191791
42.448524 -0.60397792 4.8227992
42.529293 -0.54550743 4.8244791
42.608864 -0.48686874 4.8411889
42.687576 -0.42445052 4.887629
42.766632 -0.36328173 4.9236889
42.846703 -0.30179417 4.9567389
42.925972 -0.24228489 4.975059
43.007332 -0.18214703 4.9852591
43.089016 -0.12308455 4.9844189
43.170933 -0.065039277 4.9704089
43.253925 -0.0072647333 4.946939
43.336006 0.048849583 4.9141188
43.420704 0.10364807 4.8388391
43.506271 0.15700507 4.746449
43.584728 0.21506858 4.7428088
43.666153 0.27377117 4.746819
43.746151 0.3326714 4.7551689
43.82732 0.39162993 4.7538891
43.908989 0.44952059 4.7407689
43.991615 0.50761104 4.7182388
44.073494 0.56298423 4.678369
40.846195 3.1336493 3.187639
40.686615 3.0141225 3.1705091
38.923603 1.5260549 2.6183889
40.524471 2.8958244 3.124269
38.520241 1.5704399 2.3418889
38.439396 1.5115805 2.329679
38.275803 1.3960608 2.321449
38.196793 1.3351934 2.318749
41.496754 3.5944417 3.0662191
39.959198 2.6527386 2.974189
40.123978 2.7696161 3.0300789
40.847054 3.3018837 3.1081591
31.87162 1.004122 1.795529
32.574032 -0.4553442 3.023819
38.36224 1.6181884 2.1859491
39.715096 2.6460896 2.8511691
35.063858 -0.47501731 4.4211588
37.387833 1.0867524 2.1009791
38.849209 3.2675173 0.175359
32.385468 4.2194233 -6.1532912
43.347168 2.1203887 4.3055992
33.226471 3.0694203 -6.0532908
34.00705 -0.72961998 4.3194089
41.012058 4.2662477 2.5012691
45.663807 3.459774 -2.0724511
36.439079 -2.5966721 -2.481781
38.610729 2.1795604 1.936169
39.773861 4.2521644 -0.058981001
33.912647 0.25504684 4.269299
33.74501 0.82112336 3.937119
38.913357 3.1399603 1.3341891
40.615585 -6.8990679 3.4431691
45.780907 3.5599198 -1.873781
36.139313 0.40152442 -1.891331
34.436066 4.981101 -0.60883099
33.13961 -1.9065623 1.636499
44.983936 4.738687 0.221499
34.790386 -3.39868 1.145409
32.664879 0.090625763 -0.67251098
33.640263 2.8059161 -3.552911
32.07597 2.7178233 -4.4945612
32.699837 -1.3892577 0.83071899
35.55196 2.3223269 0.244699
34.004498 4.5155134 -0.99277103
34.301903 4.1453218 -0.249521
39.477196 1.9529855 2.940289
44.832527 4.7972827 0.521559
32.441151 2.813678 -5.2902808
33.466965 2.7161031 0.043258999
39.070042 2.8983059 1.9167989
42.785313 5.1679497 1.751099
34.527328 5.5415878 -0.93682098
38.941723 3.2395554 1.216149
38.412273 2.1823416 1.579519
32.51918 1.9546924 -0.390881
39.866787 4.3628182 0.27951899
39.782429 4.2836041 0.237399
34.398392 5.6564326 -1.237491
34.480469 5.7545085 -1.193011
34.565369 5.8313961 -1.151481
39.003204 3.3936138 -0.33098099
