# .PCD v0.7 - Point Cloud Data file format
VERSION 0.7
FIELDS x y z
SIZE 4 4 4
TYPE F F F
COUNT 1 1 1
WIDTH 819
HEIGHT 1
VIEWPOINT 0 0 0 1 0 0 0
POINTS 819
DATA ascii
-2.405941 8.7632408 -7.2084818
-2.4184074 9.1586246 -7.1858978
-3.155983 7.7616158 -6.6756287
-2.9500923 7.4655304 -6.6137838
-3.5430641 9.3283339 -6.55305
-2.8135872 8.5410557 -6.8271379
-2.5653515 8.0364113 -6.7228355
-3.1352406 9.7379217 -6.7090459
-2.5534878 9.2563629 -6.747582
-3.737587 6.9350834 -5.7441044
-3.6516895 6.7531776 -5.7417941
-3.5515366 7.6246147 -5.9482775
-3.1204414 7.1474438 -5.9088793
-3.9541168 9.1421089 -5.8788157
-3.1033916 8.5546036 -5.8004661
-2.7396698 7.9007969 -5.7817478
-3.4241066 9.4944353 -6.0560122
-2.934185 9.0942059 -6.0167007
-0.57110405 -4.9734936 -4.9474506
1.1709785 -3.4641552 -4.487587
0.3800354 -1.7433395 -4.6966782
0.95599365 -2.4968052 -4.7307873
1.6751556 -3.1154671 -4.5729418
2.3599586 -3.3985462 -4.3160992
0.13287354 -0.53245735 -4.7304978
0.74412918 -1.0869617 -4.9898171
1.5470581 -1.6959476 -4.9221573
2.2751579 -2.325346 -4.5722761
2.9056816 -2.828743 -4.2378726
0.58835602 0.24793434 -4.704565
1.392128 -0.28710747 -4.9446025
2.1387253 -0.89810944 -4.7497454
2.8641052 -1.528841 -4.3877983
3.5074692 -2.0843315 -4.0566587
1.1881371 0.79770279 -4.3638935
1.9240532 0.48800087 -4.5136328
2.696701 -0.10107422 -4.4579058
3.4688034 -0.75618935 -4.1286507
4.0091248 -1.4093361 -3.8479328
-4.0200176 6.7847939 -5.0458665
-3.7367306 6.5170269 -5.0668507
2.4407082 0.88667107 -4.0357051
3.1981964 0.53361702 -3.9453425
3.8156853 -0.056035995 -3.7818718
4.2105675 -0.74917221 -3.6603951
-4.4494972 8.3682384 -5.0407772
-3.9401588 7.5269566 -5.087719
-3.092783 6.9451389 -4.9148569
-4.0394058 8.8532772 -4.998148
-3.2509727 8.4758053 -4.7778401
-2.8785934 7.7259655 -4.8109727
-1.7269001 -5.1284122 -4.2808743
-1.5805168 -4.5860157 -4.2119412
-1.0813923 -4.9304619 -4.5754776
-0.26150703 -5.1844406 -4.3809829
-1.1337414 -4.0314388 -4.0670681
-0.4305954 -4.1414127 -4.4413462
0.37948608 -4.8068485 -4.4246559
1.1029282 -5.1571732 -3.995568
-0.099849701 -2.6961994 -3.8339
0.1728878 -3.3160725 -4.093667
0.95668793 -3.9575577 -4.3117924
1.7051353 -4.6014729 -3.9831378
2.422966 -5.0830345 -3.6419249
-2.8107853 0.46699142 -3.9299874
-2.4263859 -0.044239044 -3.9040205
-1.8111229 -0.20060349 -3.7735572
-0.41096878 -1.2596645 -3.9504197
-0.11110497 -2.0026646 -4.085742
0.39067459 -2.7532482 -4.3982348
1.7121735 -3.7311592 -4.3346696
2.4080963 -3.8920193 -4.1040058
3.0924568 -4.4471989 -3.5831308
3.760273 -4.9072914 -3.2504334
-2.4721508 1.0926628 -3.8362858
-1.8843975 0.64509773 -3.781117
-1.0713787 0.10455132 -3.7263515
-0.39777756 -0.53198433 -4.0676031
3.158432 -3.2396011 -4.0116348
3.7119865 -3.6083145 -3.7233109
4.3349457 -4.2151394 -3.1596112
-2.0069313 1.5905266 -3.6726131
-1.2940292 1.316761 -3.5942669
-0.42207146 0.81241417 -3.6723094
0.093647003 0.472332 -4.0628767
3.8157501 -2.4114761 -3.8241324
4.2984314 -2.7995472 -3.5825677
4.9289894 -3.383316 -3.0966575
-0.55189133 1.7251301 -3.3757057
0.13840866 1.5805721 -3.4200313
0.95540237 1.1094151 -3.660687
1.7206459 1.0681782 -3.9206674
4.401001 -1.4588203 -3.5634937
4.9089317 -2.0726795 -3.2132525
5.2853584 -2.6379585 -2.8023245
-4.3280106 6.7257328 -4.1405201
-3.8910198 6.2762222 -4.1126189
0.72186661 2.0576916 -3.1506152
1.5072746 1.7136631 -3.1500194
2.3465767 1.2492657 -3.3549349
3.289196 0.94721413 -3.4296281
4.224575 0.054836273 -3.4794245
4.7632713 -0.65030479 -3.1860287
5.3835564 -1.295126 -2.7464528
5.5466995 -1.9686909 -2.5330961
-4.593502 8.0104656 -4.1167421
-4.3158932 7.3104877 -4.180645
-3.1470051 6.7506542 -3.9143481
2.1153717 2.2014503 -2.8695319
2.757206 1.7711391 -2.7956266
3.6260338 1.1927071 -2.8209639
4.4462509 0.71907425 -2.8337443
5.177002 0.082738876 -2.6208415
5.5254402 -0.52965546 -2.4556026
-4.1847591 8.4765167 -4.0909758
-3.5761814 8.2158642 -3.868176
-3.0893841 7.5715313 -3.8435895
4.2724648 1.5209255 -2.4260037
4.7530365 1.210474 -2.4166343
5.1266823 0.74447823 -2.3348637
0.92226028 8.800499 -2.5230279
1.4955025 8.3309879 -2.5560861
1.9803467 8.0214596 -2.4279971
1.3498802 9.5109005 -2.5854218
1.938324 8.9934521 -2.7538912
2.112957 8.274004 -2.5630105
1.5873833 9.8733768 -2.5448258
-2.4609871 -5.0510921 -3.4538085
-1.8617344 -5.2256851 -3.6804988
-1.9536171 -4.57094 -3.5470808
-1.1877518 -5.1300735 -3.546248
-0.43662262 -5.1327648 -3.8045402
-4.8297615 -0.44125175 -3.389688
-4.3799019 -0.93313217 -3.486542
-3.6394539 -1.500761 -3.4172611
-3.1434212 -1.823988 -3.202497
-1.9990063 -2.8058186 -3.0448298
-1.3517704 -3.7794743 -3.2757165
-0.682127 -4.2041206 -3.3190062
0.15891647 -4.9038124 -3.2995057
1.0197601 -5.12393 -3.3722339
-5.0546188 0.88038254 -3.3122058
-4.6991901 0.23717499 -3.5630932
-3.9508038 -0.36409187 -3.7863941
-3.1318111 -0.96294594 -3.7483864
-2.3861275 -1.5948067 -3.3441999
-1.6373672 -2.244688 -3.1463139
-0.7237854 -2.7534466 -3.0594914
-0.37951851 -3.3873234 -3.3227997
1.4515915 -4.9404964 -2.9075918
2.3403702 -5.154108 -2.8961179
3.0741272 -5.3346157 -2.9669237
-4.7172565 1.4083042 -3.2846904
-4.1406803 1.040823 -3.5571675
-3.3845062 0.41476822 -3.8038616
-2.6004276 -0.48442841 -3.8635604
-1.7304325 -0.80559921 -3.5750048
-1.018116 -1.4161339 -3.3633647
-0.54944801 -2.127224 -3.345839
2.8052521 -4.9797935 -2.4226935
3.6142883 -5.2896461 -2.5778069
4.27882 -5.2603302 -2.2710543
-4.1504116 2.200449 -3.0910277
-3.5425587 1.8134365 -3.4454718
-2.9016647 1.3622608 -3.6806617
-1.1790314 -0.43641472 -3.5885384
-0.8266716 -0.75245667 -3.4902465
4.6593704 -4.5215244 -2.6189876
4.628376 -4.7520809 -2.1633496
-3.6118374 2.818409 -2.9171276
-2.9520836 2.6194134 -3.1849344
-2.1536083 2.0781193 -3.4399564
-1.2724648 1.8066025 -3.4336965
5.2832985 -3.6484127 -2.5503561
5.395462 -3.9164982 -2.032479
-2.3505001 3.2290401 -2.7796969
-1.5650215 2.7525997 -2.9710844
-0.75538445 2.2319794 -3.1531062
-0.053684235 2.1510124 -3.1246343
5.6600571 -2.8110332 -2.2188487
5.8451729 -3.2143269 -1.714438
-4.6458855 6.7042236 -3.1876862
-4.08358 5.9758663 -3.1570799
-3.5457802 5.893446 -2.732446
-1.7949066 3.5482426 -2.4546242
-1.1823368 3.2818832 -2.4574425
-0.24507332 2.8594074 -2.5479
0.58654022 2.5085278 -2.7788634
1.350193 2.2212086 -2.8492196
5.8116837 -1.3131809 -2.2586884
6.0279922 -1.9750061 -1.8391531
6.1998825 -2.6398182 -1.4417789
-4.5992489 7.8531284 -3.4763932
-4.5293808 7.5271206 -3.0199933
-3.3618717 6.7695141 -2.9142542
-3.4156647 6.1244221 -2.7301431
0.37845612 3.1316605 -2.1341364
1.167038 2.9655857 -2.2543895
1.9721336 2.6369076 -2.4643772
2.967514 2.1544228 -2.5337174
3.712204 1.664299 -2.4542987
5.6211929 0.15551567 -2.2042081
5.9802132 -0.5783844 -1.9968834
6.2864761 -1.1028633 -1.4530067
-3.842535 7.8791866 -3.1079209
-3.3533401 7.4613514 -3.1537814
1.7681999 3.3342743 -1.8086653
2.4983101 3.1333771 -1.8974788
3.3639603 2.7012939 -2.1601975
4.1398201 2.0771046 -2.0973051
4.98349 1.5372238 -1.9510829
5.6835632 0.82032394 -1.7641575
6.2510414 0.10105896 -1.4707487
6.5266647 -0.52226067 -1.244782
-1.1940994 7.714756 -1.9968417
-0.70951462 7.2780132 -2.0131958
-0.093412399 7.0633469 -1.8303995
3.0944176 3.3889694 -1.5282154
3.7551918 3.1670055 -1.5694439
4.5398026 2.6462688 -1.4940884
5.2823448 1.9976311 -1.350558
5.8815231 1.3972321 -1.2296886
-0.80007172 8.3520813 -1.9891489
-0.20679665 7.9108524 -2.186909
0.53931427 7.4176083 -1.9341435
1.2208214 7.2997265 -1.6196308
-0.15242767 9.0799713 -1.8755484
0.44506073 8.6797161 -2.0523458
1.1823654 8.0460281 -1.9645739
1.6726837 7.6839886 -1.8869181
0.33099365 9.5519047 -1.6974223
0.92693329 9.5505056 -1.9471011
1.5722771 8.6972733 -2.1627238
2.0068092 8.2244015 -2.2341068
1.3635635 9.9683495 -2.2184319
-4.4898853 -4.8542042 -2.7783937
-4.0489902 -5.202055 -2.994592
-4.2097511 -4.4733124 -2.71703
-3.558672 -4.6575603 -3.0571318
-2.8290749 -5.2638016 -2.8816452
-2.0729923 -5.3120289 -2.7352538
-3.1737785 -3.2063656 -2.2620656
-2.9474125 -3.8788929 -2.7301552
-2.2895412 -4.1906624 -3.0811663
-1.4118538 -5.073164 -2.6022394
-5.8690205 0.020305634 -2.6546712
-5.40028 -0.56611824 -2.8955345
-4.8527927 -1.2663479 -2.9532423
-4.054697 -2.0051289 -2.7625198
-3.1344776 -2.5141354 -2.633322
-2.480732 -3.1339149 -2.8518357
-1.5713444 -3.5733547 -2.9256163
-0.76988602 -4.7985802 -2.4534149
-0.046363831 -4.9121342 -2.2629371
0.6497345 -4.925602 -2.0879333
-5.6610489 0.77043915 -2.8018579
-5.2720299 0.15564346 -3.1644502
-2.6808491 -2.080061 -3.0014374
-0.95289421 -3.214613 -2.7696054
-0.68558502 -3.4892254 -2.7580466
1.3086128 -4.9210567 -2.0261712
2.0934372 -4.9294395 -1.8563204
-5.5785942 1.9923763 -2.4252639
-5.2379131 1.6343288 -2.8637254
2.6750412 -4.9671345 -1.8006363
3.4263535 -5.3714886 -1.6507115
4.1878052 -5.4077015 -1.4460406
-5.8306923 3.5939922 -2.3340828
-5.2574463 2.9424953 -2.4146199
-4.6334553 2.4535275 -2.7836943
4.7670822 -4.9660206 -1.3164947
5.3890648 -5.1582909 -0.73219657
-5.4892521 4.3259029 -2.3448801
-4.6936836 3.7514858 -2.6119456
-3.9172325 3.2151546 -2.6447439
5.5108948 -4.2825546 -1.2327313
6.0246429 -4.7007198 -0.79717493
-5.3088818 5.6712875 -2.0234566
-4.9258366 5.1238155 -2.3201447
-4.0710335 4.5200596 -2.4916606
-3.2891941 3.8947945 -2.3449795
-2.6135941 3.6307354 -2.3370731
6.1459274 -3.4722481 -1.063364
6.7881737 -4.0250034 -0.74478412
-4.9285011 6.5162792 -2.2686117
-4.4484558 5.712759 -2.4761958
-3.5071201 5.3695793 -2.1327071
-2.8555069 4.6771603 -1.8150911
-2.005331 3.9428596 -1.8425667
-1.0577393 3.6697197 -1.7890353
-0.39447403 3.3151779 -1.9288383
6.4579124 -2.0045891 -1.1346502
6.5611992 -2.6536312 -0.69297099
7.3291092 -3.2858181 -0.46749282
-4.4493465 7.2284622 -2.1255264
-3.6978359 6.6904888 -1.9939618
-3.0696774 6.0034332 -1.5913723
-2.4836292 5.7045994 -1.3899536
-0.69751358 3.6575165 -1.2857981
0.17245102 3.4769802 -1.4737225
0.96124649 3.388607 -1.608367
6.5842209 -1.3223972 -0.72753692
6.6907959 -1.9987583 -0.41324902
7.5158653 -2.7482738 -0.15924501
-2.6194782 7.4530258 -1.27809
-2.3795166 6.8857212 -1.5556064
-1.5769749 6.3414726 -1.4774795
0.74648666 3.7258644 -0.87252569
1.598938 3.7318573 -1.1738009
2.3893204 3.5867481 -1.372858
6.2021904 0.86343193 -1.0374308
6.5445518 0.23731232 -0.68766737
6.6972008 -0.47983932 -0.49724698
-2.4026222 7.7322578 -1.2155895
-1.8279095 7.7404099 -1.6257262
-0.96106148 6.854578 -1.6755576
-0.32215691 6.6823788 -1.2490733
2.1963463 3.965107 -0.70250082
2.8889465 3.8020267 -0.85895586
3.821003 3.5373745 -0.84077168
4.7015533 3.0021152 -0.84606552
5.503685 2.3232212 -0.6946454
6.1032791 1.5210342 -0.54002571
6.4664116 0.78939629 -0.35889077
-1.194973 8.5140305 -1.298214
-0.41346359 7.8746452 -1.1504755
0.45917892 7.1966839 -1.1650081
1.1508751 7.2440891 -1.4071069
4.1608124 3.5947418 -0.28539896
4.8139572 3.1561489 -0.2852335
5.4503174 2.6263332 -0.20426083
-0.40281487 9.0110321 -1.1868339
0.0085983276 8.7162361 -1.3036919
0.95808029 7.635334 -1.3967662
1.3078575 7.4285412 -1.3790066
0.18930435 9.4578094 -1.3697472
0.39786911 9.4204617 -1.3770812
-4.8202019 -4.9530563 -2.2115803
-4.2935715 -5.3238468 -2.1133499
-4.3870754 -4.3145161 -2.0247402
-3.7241058 -5.2472744 -2.0160575
-2.9801674 -5.3751831 -1.8514521
-2.243845 -5.3869934 -1.7766593
-5.7373981 -1.4875774 -1.5970144
-5.2442799 -1.8646145 -1.8139532
-4.5391636 -2.4115162 -1.8535974
-3.6008167 -3.316782 -1.781765
-3.4406319 -3.7038555 -1.7727039
-2.3877964 -5.2207012 -1.3100963
-1.7650051 -5.3892784 -1.5194323
-1.1785259 -5.4590263 -1.1189771
-6.2611256 -0.011728287 -1.9747977
-5.8855934 -0.86650467 -2.0428426
-5.2299728 -1.5611744 -2.2323432
-4.196888 -2.3987923 -2.2253182
-3.5500221 -2.8579159 -1.7955353
-3.3071804 -3.2907314 -1.3160872
-0.8598175 -4.9528084 -1.8095198
-0.18398094 -5.0153294 -1.3024817
0.47674561 -5.0333462 -1.1240063
-6.2999077 1.2532234 -1.7878692
-6.189146 0.72653008 -2.0655444
1.0777893 -5.0374775 -1.0452585
2.06464 -5.1987305 -0.83832002
2.6633492 -5.5141544 -0.80097342
-6.5226936 2.8408756 -1.5445771
-6.0236397 2.0431423 -1.828898
2.487381 -5.1083584 -1.2328386
3.2990227 -5.487669 -0.80275083
4.1190262 -5.5122223 -0.49564075
-6.6355 4.089571 -1.417696
-6.3818512 3.5269184 -1.8066766
-5.8088303 2.7322845 -2.0646729
4.7069359 -5.487257 -0.39550328
5.3646469 -5.3770485 -0.23669386
-6.2867222 4.7665024 -1.5563571
-6.0413666 4.4298458 -1.967195
6.1681061 -5.0804062 -0.081285477
6.5867691 -4.9967117 0.47520304
-6.1315594 6.268404 -1.0663879
-5.8492069 5.6635151 -1.4979253
-5.6620426 5.0472507 -1.9659379
6.9597092 -4.4764519 -0.22282028
7.1724358 -4.5200863 0.26079941
-6.011343 6.4676571 -1.0061967
-5.3952351 6.5482044 -1.3486998
-2.4606018 4.7404118 -1.0913224
-2.0000172 4.1958351 -0.8517046
-1.374918 3.9673977 -0.87331009
6.7170906 -2.4406338 -0.13913441
7.7308426 -3.4656239 -0.0065636635
7.7570457 -3.8309841 0.43002701
-4.6491585 6.8535671 -1.0987086
-3.877636 6.7213936 -1.0386555
-3.1446877 6.3162422 -1.3523364
-2.4486256 5.407156 -0.84795189
-0.92396927 3.8007317 -0.62284732
-0.022569656 3.6908073 -0.53881955
6.7743225 -1.3424187 0.24910307
7.0199661 -1.9886913 0.37388182
7.8557358 -2.5597382 0.4737215
8.0416412 -3.2410583 0.74180412
-3.0367279 7.1759701 -0.84992528
-2.4877071 7.030365 -0.37210464
-1.7749023 6.1959896 -0.55349326
0.64268494 3.8469791 -0.25819635
1.3272209 3.9698296 -0.25646496
6.7398605 0.1363945 0.14446926
6.7625084 -0.53715134 0.45436621
7.7945557 -2.0462132 1.0187135
-2.513176 7.6698151 -0.95556116
-1.9477501 7.5809269 -0.53019881
-1.1348114 6.948616 -0.58194947
-0.53477859 6.7399311 -0.72774005
2.011425 4.0788078 -0.036944866
2.8386917 4.0856266 0.074920177
3.5792389 3.905426 -0.20807552
5.8554459 2.1587448 0.06966877
6.1846657 1.6247253 0.45508337
6.5789299 0.70232582 0.51260185
-1.2584114 8.1542797 -0.66962934
-0.91165543 7.6015205 -0.72835565
-0.13690567 7.0504341 -0.65438366
3.331501 4.0410957 0.42161083
3.934227 3.7928925 0.28292036
4.7600479 3.2831898 0.38689995
5.5096359 2.6096172 0.47143602
5.9062691 2.0644875 0.69759607
-4.8096886 -5.0141296 -1.5768695
-4.4188347 -5.2963467 -1.1888864
-4.4607697 -4.5487156 -1.4195352
-4.0954609 -4.8336945 -0.90236592
-3.4368496 -5.4376469 -0.98024392
-5.8318024 -1.5154171 -1.208446
-5.5025826 -1.8877544 -1.0071115
-4.7507439 -2.5750694 -0.92499137
-4.1649303 -2.8613186 -0.8570087
-3.2811012 -4.0404854 -0.79883718
-1.5819969 -5.3776131 -0.73046064
-1.1570759 -5.5101051 -0.46726394
-6.5154705 -0.10573387 -1.0733266
-6.1325474 -1.0276699 -1.0364153
-3.7238102 -2.9992485 -0.78660798
-3.0470104 -3.4269257 -0.66269207
-0.24990273 -5.1330223 -0.27846098
0.29528427 -5.1277981 -0.1992054
-6.6211967 1.1389332 -0.97385645
-6.641695 0.54915428 -1.0954676
0.93188858 -5.1403275 -0.048082829
1.8840218 -5.371603 0.13113546
2.456604 -5.6221371 0.21635962
-6.8462372 2.77635 -0.84069324
-6.4018345 1.9859524 -0.88810229
2.7222633 -5.6191654 0.64075565
-6.9828529 3.8970032 -0.8024776
-6.9549007 3.3673553 -1.0157495
4.4355202 -5.591589 0.56005001
5.1728554 -5.5509014 0.72181177
-6.8645191 5.4401588 -0.28094387
-6.6986122 4.8326015 -0.68702745
6.010128 -5.2479782 0.96902275
6.556057 -5.0212746 0.84774923
-6.6244011 6.0800571 -0.51234913
-6.4241848 5.5588284 -0.82919288
7.0416794 -4.6922417 1.1791472
-6.1515369 6.5498753 -0.42166686
-5.5549393 6.7337265 -0.2911973
-2.1499138 4.1721745 0.14487028
-1.6272964 3.8260365 0.36209536
7.7478142 -3.9215755 1.3514433
-4.8732147 6.8084049 -0.13766384
-4.0434227 6.7655468 0.012430191
-2.876564 5.9416122 0.37165403
-2.6350136 5.1894112 0.12172318
-1.0932274 3.7434654 0.29146957
-0.26163101 3.6508408 0.48435497
6.6416855 -1.3811951 1.3903303
6.9572105 -1.8251266 1.4034991
7.9743118 -2.5802345 1.543644
8.0070915 -3.2256565 1.43929
-3.4363556 6.7307472 0.077297688
-2.8619957 6.5491276 0.09591198
-2.3688564 6.1221867 -0.14833117
0.49492264 3.8379631 0.61889839
1.1131325 3.969059 0.77777863
6.4491577 -0.053697586 1.8411536
6.6120186 -0.63118553 1.3926201
7.5044289 -1.9209385 1.4842501
7.7604904 -2.0915318 1.5215287
1.8148079 4.0601997 0.91439104
2.606739 4.0835724 1.0791669
6.0513573 1.5152111 1.5134587
6.4135475 0.60808182 1.4825449
3.1758003 4.009346 1.1833639
3.7785301 3.7650375 1.2762947
4.6303749 3.2524643 1.4005985
5.3521004 2.5581341 1.4705415
5.7937813 1.9746742 1.4584546
-4.5114288 -5.3986359 0.10254765
-4.1808662 -5.0101337 -0.037160873
-3.5062199 -5.5137558 0.1479845
-2.7224178 -5.5824051 0.6069417
-5.4636497 -1.9683247 -0.38641644
-4.8612251 -2.4973965 -0.24696398
-3.4299946 -4.139183 0.22081375
-1.912262 -5.5368366 0.50704002
-1.3344574 -5.5160255 0.42642832
-6.5617523 -0.1368351 -0.13960743
-6.1870327 -0.97747612 -0.056674004
-5.5817928 -1.7944736 0.094071865
-4.7431889 -2.425806 0.27314949
-3.8779182 -2.8319168 0.21625519
-3.2416248 -3.4104939 0.31766129
-0.55947685 -5.2085762 0.68486023
0.11957741 -5.1984673 0.75421047
-6.6692142 1.0696926 -0.14877939
-6.636343 0.51839256 0.12282896
0.71506119 -5.2133007 0.93321896
1.6811142 -5.2933826 0.99971819
2.3125343 -5.6116791 0.86398649
-6.9539185 2.7595425 0.042533875
-6.4181976 1.9341087 0.18713713
-6.3834896 1.2651291 0.57056618
2.0825272 -5.2945194 1.3392172
2.7670555 -5.6103916 1.3658695
3.6785965 -5.6749744 1.4620514
-7.1968803 3.8134956 0.095766068
-7.1880398 3.2212944 0.26125813
4.4128227 -5.507885 1.6472502
5.0071106 -5.4435425 1.5345654
-6.8860931 5.4280853 -0.13275576
-6.8795509 4.7936039 0.27484322
4.9658012 -5.0557117 2.1970248
5.6459694 -5.1396923 1.9006567
-6.8161087 5.9383316 0.37716866
-6.9060326 5.393631 0.54161882
-2.7176933 3.1315289 1.4024363
6.4237022 -4.6118565 2.3293562
6.8670311 -4.6057854 1.9668732
-6.3182487 6.4308319 0.53285503
-5.7373219 6.5950089 0.73231936
-2.9764576 4.611414 1.1764212
-2.5323563 3.8220882 1.070672
-1.7204723 3.3480759 1.2380681
-1.0591221 3.044939 1.566328
6.0908394 -2.7176819 2.569623
7.0976868 -3.7289524 2.6039758
7.4277573 -3.961153 2.1389041
-5.0249329 6.7036133 0.79569149
-4.1663933 6.6378746 1.0088153
-3.2714367 5.8824558 1.1719046
-3.0805225 5.1092205 0.98126221
-1.102066 3.5031109 0.93828297
-0.37929726 3.3005905 1.4354587
0.22192764 3.3422832 1.908937
6.2098274 -1.5723114 2.4163222
6.6194077 -2.2181091 2.287622
7.4280243 -2.7654076 2.425374
7.7579918 -3.3763103 2.085537
-3.5665035 6.6084404 0.79227257
-3.3576984 6.4340649 0.9876585
0.36886978 3.6719952 1.353301
0.93344116 3.7090187 1.7835083
6.0982819 -0.10821915 2.5858402
6.2994308 -0.77689171 2.3209982
1.6499786 3.879303 1.7845411
2.4207458 3.8182526 2.0600801
3.1768494 3.5443687 2.4646072
5.164608 1.9725266 2.7924557
5.6748123 1.4264832 2.5041866
6.0653687 0.53685379 2.400722
3.091362 3.89921 1.7815838
3.5854645 3.5621052 2.1456184
4.3608398 3.0630417 2.3596334
5.0812416 2.4280529 2.3964143
5.5501671 1.9528885 2.2194486
-4.7773323 -5.4150124 0.87425232
-4.6523228 -4.5683861 0.95343113
-4.5788174 -4.9473553 0.9488678
-3.5194454 -5.5460453 1.0806246
-2.8479462 -5.5583172 1.0951591
-3.7522869 -4.1343479 1.2275925
-2.2445621 -5.5834217 1.3138905
-1.7268143 -5.6525402 1.8144846
-6.3861809 -0.24830437 0.55707359
-6.0690536 -0.82776833 0.83843994
-5.4345703 -1.5436306 1.0658836
-4.668354 -2.1189289 1.1483946
-3.8020458 -2.5536938 1.130444
-3.1576824 -3.4244347 1.3929262
-2.5912914 -3.9741764 1.8743744
-1.723711 -4.3416977 1.8570127
-0.74794006 -5.2288609 1.6165466
-0.070455551 -5.2270222 1.5923886
-6.2780056 0.4166851 0.87857962
-5.9633217 -0.22025871 1.3525791
-5.4713612 -1.0298634 1.5606842
-4.3310757 -1.915308 1.7047968
-3.495573 -2.2938919 1.6938152
-3.0196457 -2.7696857 1.7693529
-1.6445484 -3.4184952 2.0450392
-1.2559738 -3.6850128 2.0321021
0.48907471 -5.2396507 1.9002914
1.3603096 -5.293499 2.0200934
2.0381775 -5.7378311 2.4924631
-7.1466808 2.6295567 1.1163602
-6.420187 2.1128883 1.1319184
-5.9004898 1.224493 1.2625337
-5.7604885 0.57471657 1.6461267
-1.2552223 -2.7696571 2.1944704
-1.0349236 -3.1977634 2.198401
1.9361801 -5.2474957 1.9731388
2.7222595 -5.6431675 2.2648382
3.4281273 -5.7251053 2.3704338
-7.2285824 3.7804146 1.1199307
-7.3090801 3.2027302 1.0855598
-6.0721626 1.9532108 1.4829216
-5.3789825 1.7975578 1.7088032
-4.7736244 1.7360172 1.9231496
4.0607185 -5.297411 2.6023216
-6.9962502 4.63311 1.2748175
-4.5381317 2.2890015 2.0040998
-3.9645157 2.206316 1.9742136
-3.2516937 1.9026852 2.1969604
4.2333221 -4.2093449 3.1920257
4.6786385 -4.5568924 2.7526665
5.4869957 -4.7853413 2.5249653
-6.6862125 5.9183197 1.0366735
-6.7207394 5.5521202 1.4792681
-4.3313255 4.2073555 2.2756405
-3.7665806 3.716156 2.2379379
-3.2928066 2.9410076 1.8886089
-2.5439301 2.3450603 2.0070829
-1.8393345 1.8416023 2.3793888
4.9857788 -3.2311077 3.4037743
5.2448463 -3.7584457 2.938221
5.9985466 -4.2920666 2.7958632
-5.8578243 6.1859303 1.652173
-5.127821 6.0280132 2.1620731
-4.1800175 4.9516907 2.0387611
-3.5645161 4.3201466 1.8891602
-3.0393715 3.6901531 1.735487
-1.8580246 2.8476791 1.7820988
-1.1375141 2.4704819 2.1563272
-0.62804794 2.1429501 2.6610384
5.305809 -2.4663048 3.3000278
5.7802467 -3.0515747 2.8552094
6.5919113 -3.5123463 2.8744974
-5.1721897 6.4779053 1.4831314
-4.5041008 6.2417965 1.9127645
-3.8151875 5.7728252 1.8861828
-3.4676037 5.1097431 1.5431232
-0.40475082 2.8989296 2.1379938
0.17637825 2.7282619 2.6638727
0.82673645 2.6098919 3.0740876
5.2560577 -1.0099373 3.5367336
5.6075974 -1.6221676 3.1493731
6.8528252 -2.9899216 2.8200626
0.90809631 3.274044 2.5162191
1.5217476 2.9758015 2.983932
2.471283 2.4721775 3.3384094
3.1720047 1.9410458 3.5070066
4.317173 1.1258354 3.6725712
4.936779 0.57674026 3.5896454
5.5094337 -0.21214104 3.3176689
5.84618 -0.85175133 2.9997067
2.174118 3.3715858 2.7176938
2.9785995 2.9796028 3.0355911
3.7704964 2.4474983 3.2215719
4.526741 1.8043861 3.3122253
5.1738472 1.0735722 3.2111182
5.6343079 0.48067284 3.0388737
4.1614113 2.8548965 2.8451433
-4.7685928 -5.4885159 1.502449
-4.5030327 -5.1319008 1.8843212
-3.7170696 -5.5319843 2.0495577
-2.9519787 -5.6054096 1.7468815
-3.9140625 -4.490345 1.975132
-3.1588783 -4.9223156 2.2181211
-2.339901 -5.4709911 2.2923765
-1.639595 -5.6795769 2.4974546
-2.7459545 -3.3909035 1.9724932
-2.4704819 -4.1190624 2.0125904
-1.9214497 -4.6341572 2.5237389
-1.0041046 -5.6608219 2.7154226
-0.20371628 -5.7475739 2.9412456
-5.5698471 -0.18569756 1.8205843
-5.0413532 -0.86283493 2.0065193
-4.298315 -1.4729099 2.0674896
-3.3697414 -1.8990269 2.1138363
-2.6174412 -2.6654205 2.196434
-2.1082935 -3.1829548 2.1975589
-1.0974503 -4.0122929 2.6262317
-0.38480949 -4.2721252 3.1605644
0.46244812 -5.3538704 3.1582355
1.142231 -5.6884804 3.1248188
1.9245605 -5.7935925 2.8977442
-7.2336864 2.5739784 1.865644
-6.7395954 2.1868763 1.9311895
-5.2514477 0.53509903 2.0403919
-4.522644 -0.10528564 2.4625893
-3.7397995 -0.71436882 2.5607262
-2.9405403 -1.3037586 2.4846029
-2.1101303 -1.9121037 2.4768834
-1.2139702 -2.441927 2.5235729
-0.72468948 -3.185894 2.9381495
-0.20916939 -4.1218128 3.3211832
0.80537033 -4.7584343 3.3894634
1.6931152 -5.1018467 3.4032946
2.5278854 -5.6035862 3.2326055
3.2381134 -5.7155514 3.0424976
-7.3048363 3.7071953 1.8828621
-7.1941299 3.116993 2.267395
-6.3995609 2.2938995 2.4206047
-5.5342941 2.0405941 2.3285022
-4.6018353 1.2403679 2.1885481
-3.8987827 0.69270134 2.5144877
-3.1419277 0.0772686 2.673913
-2.3235455 -0.5337429 2.6934452
-1.5013657 -1.164463 2.8081379
-1.0531178 -1.9013062 3.0483894
-0.70912933 -2.5687885 3.4027872
2.5339088 -4.4934692 3.7271614
3.1633186 -4.8269997 3.4173436
3.6643944 -5.2465725 3.1854563
-6.9931641 4.4216995 2.1666927
-6.9164696 4.0182724 2.6348186
-4.6892071 2.6020947 2.6053534
-3.9638634 1.8418446 2.2292318
-3.2360916 1.3985844 2.4243135
-2.5150223 0.88471413 2.637702
-1.7697029 0.23989487 2.9510345
-1.2199898 -0.28350258 3.2342505
3.1622696 -3.6230297 4.0439434
3.7076492 -4.0325947 3.5928736
3.979702 -4.6864128 3.1346216
-6.5000458 5.1860867 2.3489957
-5.9149303 4.9226952 2.9114294
-4.9340458 4.1896343 2.7945805
-4.3361912 3.4531078 2.5706272
-3.8833122 2.9825401 2.287693
-2.6452332 1.7485085 2.4240527
-1.838398 1.391346 2.6061282
-1.1486549 1.0274906 3.0048351
-0.52281189 0.54982948 3.3690553
3.6761703 -2.7823429 4.0205822
4.3292274 -3.261076 3.6626787
-5.9166183 5.7455215 2.2935772
-5.2298241 5.4767971 2.6092119
-4.7514858 4.8867874 2.527689
-0.43021011 1.7027416 3.0181861
0.21414948 1.1772175 3.3750238
1.0073814 0.8318634 3.7244511
3.840313 -1.1909294 4.3991833
4.1593971 -1.9063396 4.046196
4.7624626 -2.4296474 3.6296539
0.23538208 2.1599503 3.0748663
0.83169174 1.9894466 3.3689198
1.5939407 1.3268967 3.6489801
2.3319435 0.82296562 4.0369043
3.2164764 0.19888115 4.2982216
3.9388695 -0.46882439 4.2859755
4.6704597 -1.1076317 3.9409142
5.0499153 -1.6928711 3.6387539
1.4629898 2.4335003 3.3560853
2.1846466 2.003561 3.5336914
3.0012207 1.4513988 3.7357788
3.7325706 0.90576553 3.9901905
4.4670334 0.25008965 3.9690561
4.964859 -0.35113907 3.8560162
-1.9463482 -5.4935074 2.9962778
-1.7165165 -5.6411629 3.1279449
-1.6779861 -4.9910641 3.2051773
-1.2016792 -5.4487457 3.484725
-0.40716171 -5.6768284 3.4371357
-1.1516953 -4.480648 3.2737393
-0.59911156 -4.7829552 3.5471621
0.15414429 -5.2535763 3.4941854
0.617939 -5.6136723 3.4388814
-0.40343666 -3.1705303 3.6302781
0.061981201 -3.7745876 3.7343788
0.86227798 -4.275938 3.8557568
1.5731506 -4.547224 3.8386393
-6.7166252 3.1601868 2.78229
-6.1952133 2.6586514 2.9600224
-5.6426868 2.2953148 3.0157552
-1.1845303 -1.1541824 3.6448956
-0.81158447 -1.7784729 3.8438988
-0.22014427 -2.4972649 4.0273495
0.53699112 -3.0915127 4.2904081
1.3731651 -3.7134056 4.2755852
2.1481934 -4.1852417 4.094698
-6.530426 3.8545399 3.1043987
-5.8321724 3.2240982 3.3132915
-5.2126236 2.7433891 3.2497191
-0.9698391 -0.55058098 3.92173
-0.45352364 -1.0989685 4.3967819
0.32832336 -1.7095852 4.5714874
1.12883 -2.3262615 4.6359959
1.9819336 -2.9378624 4.5486927
2.6520348 -3.4483814 4.2226992
-5.9980068 4.4438229 3.1639977
-5.4499207 3.8967438 3.2334833
-4.9605217 3.3793221 3.1725779
-0.37574005 0.13063431 4.062149
0.17677879 -0.31496048 4.5400257
0.91347122 -0.91840363 4.7358227
1.7433739 -1.5268211 4.764782
2.5688019 -2.1381226 4.6183529
3.1633415 -2.6100502 4.3230782
0.19763947 0.53430176 3.9376755
0.85020065 0.37907791 4.3427477
1.5693817 -0.075500488 4.6462679
2.3647499 -0.73662376 4.7361393
3.2079582 -1.3237267 4.56709
3.6018372 -1.8449154 4.4018793
2.1126747 0.33617783 4.3713856
2.8003044 -0.11343384 4.5090275
3.4487495 -0.71722984 4.4309216
