# .PCD v0.7 - Point Cloud Data file format
VERSION 0.7
FIELDS x y z
SIZE 4 4 4
TYPE F F F
COUNT 1 1 1
WIDTH 1529
HEIGHT 1
VIEWPOINT 0 0 0 1 0 0 0
POINTS 1529
DATA ascii
6.381424 1.4465752 1.4407241
5.8993378 0.68327141 2.748491
-0.77124596 7.6051378 -0.95004213
-4.9778214 4.6066132 3.8295033
-4.9764214 5.1649132 3.3276474
-1.2696896 7.5910978 -0.81290388
6.5929832 1.1733379 1.1393929
-5.8342838 1.3709793 -0.36189938
7.2044983 -0.90647507 1.134125
4.3972778 3.2068577 1.29708
2.6197662 -5.6699448 3.7799594
2.7214279 -5.672821 3.7605054
2.8200912 -5.6737328 3.7402918
2.9198647 -5.676178 3.7134757
1.1015358 3.2784672 -0.49523747
-4.5816231 4.6089878 3.7827778
-2.373457 6.1185036 0.14012949
-6.3994026 3.9847717 1.1291367
-4.8793373 4.6090164 3.8322289
-0.87205696 8.1551294 -1.6671474
6.7445297 1.043438 -0.36126027
-6.5307541 3.1647224 2.4309659
6.429718 0.31448936 -1.8573713
6.7288094 0.33522415 -1.3622677
6.86343 0.34205818 -1.0601759
5.7379074 0.68012047 2.8675168
7.251976 -0.90174866 0.43433443
-0.37441635 8.3474388 -1.4347477
-0.16253662 8.3573456 -1.4638674
-4.4799023 2.6452026 4.4599552
-4.5793648 5.1661892 3.3532114
-3.4283962 3.4410152 3.1012936
6.9352798 -0.22187233 1.7364258
1.7899628 3.5074234 0.62600756
0.94301987 3.3139877 0.31657588
-0.45348167 3.0802498 -0.19570063
-4.3300648 6.0421562 -0.17527628
3.8886375 2.8261032 2.4058459
1.7405586 3.200716 1.9173577
-3.8995838 5.8637791 2.3108819
-4.5047779 5.9401016 2.0977364
4.6033134 2.5748749 2.3742695
-1.5729961 7.6681566 -1.2054214
-1.7430515 7.5628023 -1.2653567
-3.0746593 -5.5333614 3.755578
-2.9776344 -5.5303135 3.7751927
-2.8772697 -5.529707 3.7848065
-2.7784557 -5.5296364 3.7844357
0.82142639 1.7409153 3.0613344
-2.373085 6.2640171 0.064965047
-4.8775158 5.1675835 3.3422947
1.3077698 6.6988544 -2.0543349
-4.6754436 6.8560696 -2.3807058
-4.4694805 6.8467674 -2.2644382
6.5415611 1.1689987 1.4389149
6.5799255 1.3153095 0.53955185
6.8993492 -0.22197342 -1.3606483
-1.8727951 6.8535519 -0.32084826
-1.6751022 6.8533611 -0.35150045
-1.5765858 -5.5653152 3.429112
-1.4784355 -5.5691814 3.3959091
-4.3549862 7.1636829 -2.9466937
0.1289444 -0.48192596 4.0080414
-0.84248161 3.1783276 -0.63392669
-6.0503044 4.3904362 -0.17084457
1.2000198 2.9611702 2.019165
-0.92013168 7.8916197 -2.0611968
-6.2394466 -0.23399544 0.24098901
-0.66050911 3.1168633 -0.56714582
4.6012039 2.6887684 2.2323923
-3.7806034 6.2371426 -2.0128751
-3.7302246 6.1191978 -1.9940574
-3.6790638 6.008049 -1.9755894
-3.6328182 5.8860092 -1.9587101
-4.4169636 4.326828 -1.6424452
-4.3842525 4.6070919 3.7181902
-4.8756256 7.0019817 -2.8963456
-4.98913 7.0109463 -3.1752369
5.6358528 2.173912 1.9000372
5.6990585 1.973053 2.0666173
6.7343826 0.61483955 1.5386217
6.4810219 1.309267 1.3399113
6.7203865 1.0404472 0.63896722
0.92237854 1.7395992 3.0712335
-4.6785641 5.1694698 3.3565507
-4.6767731 2.0624237 4.299953
4.0214081 1.8718796 2.9200583
3.9209671 1.8730011 2.9445195
-5.5891342 1.4977856 1.9426204
6.8511238 0.48221779 -0.96018583
-5.0793667 4.0506039 4.1865425
1.0228462 1.7398453 3.0949061
1.1218567 1.7429752 3.123605
-0.87197876 7.6032619 -0.85487914
-0.96760941 7.6038198 -0.80821109
-1.0726891 7.6008596 -0.79086912
-1.17206 7.5962629 -0.79612219
-3.5105572 2.2915916 -1.9192159
-4.4107895 7.1541977 -5.6808453
-6.4724216 5.0859604 1.5261027
1.2228165 1.7429924 3.1583781
1.3230782 1.7433357 3.1823909
1.4217873 1.7469959 3.2003202
2.8200417 -5.5333328 3.7405028
2.9202957 -5.53582 3.7145174
3.0195084 -5.5375328 3.6954124
0.52126694 1.8742771 2.8835905
-6.3536797 3.1549377 -0.36567807
3.7211761 1.8765316 2.9971476
-4.9852581 7.632555 -4.4685779
5.4377823 2.2949009 1.9680057
5.7794495 0.73352051 -2.3333607
6.9270134 0.62696075 -0.36112821
2.7213554 1.8887825 3.2598515
-4.080452 5.1676579 3.205709
6.9186783 0.62833786 -0.46177939
6.7344246 0.47421646 -1.25852
-4.5794163 3.2082939 4.3521633
-1.4820328 7.4732838 -0.74456531
1.218174 3.3680477 -0.016814651
3.1089096 3.6529179 0.25198901
-3.6789608 5.5851154 2.7360063
6.1339226 1.8605385 1.3732133
4.8039742 -5.5914917 3.2127745
4.4236031 -0.26414299 3.9460626
3.3776283 3.6225853 0.77822846
1.5236778 1.7444267 3.2305677
6.4952087 1.4554787 0.43995664
-5.2594452 0.11183357 -1.8520741
6.8044548 0.61768723 1.2373875
6.8685303 0.622612 0.83742815
-5.2006073 1.8144379 -1.2162946
-5.1174812 4.0225105 -1.4150212
3.2954636 1.0751171 -2.9725075
3.5958939 1.0736141 -2.923147
3.7866592 3.4481163 1.357777
3.112606 3.5897274 1.1108255
2.4737549 3.5883064 0.87611574
-0.95981407 3.1475124 0.94514787
1.0686264 3.3502712 0.36253247
-0.63488197 3.1419163 -0.26256993
3.6275558 3.2917557 1.8742424
0.46088791 2.7727127 1.7576424
-4.4131851 6.7622242 -2.1033762
-3.5292683 6.0387516 -0.032173336
-2.0089321 3.7604446 1.1420605
-1.4241714 7.7381363 -1.1551312
-1.1776066 7.7992077 -1.0632581
1.2664337 3.3707066 -0.14378552
-3.0753117 -5.3979645 3.7070537
-2.9758816 -5.3961277 3.7303095
-2.8774567 -5.3930416 3.7396066
-2.7760468 -5.399704 3.7453718
-2.6780834 -5.3936043 3.7272263
-2.58885 -5.3871899 3.6982367
-1.4761276 6.8551064 -0.43069541
2.2034836 3.554451 -0.084778368
-6.313549 3.9873829 1.6299845
1.8180962 2.6875801 -2.0143378
-2.0793877 -5.4146843 3.5325017
-1.977457 -5.4150791 3.5141647
-1.8765697 -5.4162922 3.4939542
-1.7765045 -5.4205418 3.4551632
-1.6772251 -5.4240589 3.4261034
-1.5764542 -5.4262238 3.4038796
-1.477293 -5.4291649 3.3755512
-3.5163269 8.1807671 -6.9583926
-3.8281727 6.7294006 -2.7518003
-0.68942261 3.0487671 1.0445364
-5.3903065 5.5494289 2.5525346
-3.8324471 5.989521 -0.2856515
2.4594078 3.2452717 2.0356135
-6.2985611 -0.23009491 0.64018154
4.759922 2.5845242 2.2911041
4.6835861 2.6419926 2.2630033
-3.8460712 6.3171043 -2.0368748
-0.51506996 3.0026417 -0.80446672
-0.60588074 3.0357304 -0.84060031
-0.69407082 3.07061 -0.87268436
-0.78648186 3.1000996 -0.90800071
-0.8801899 3.125885 -0.94245958
-5.7088528 1.0914822 -0.85912693
1.0223503 1.8782864 3.0085607
6.8998222 0.62756729 0.63849407
6.6174774 0.60599327 1.8377291
6.697979 0.61275482 1.6393644
6.6337395 1.1775799 0.83948237
-2.573328 6.2666836 0.067609578
-2.2723579 6.265089 0.04332038
-2.1734066 6.2630482 0.026234027
1.6228333 1.746891 3.2464845
-1.070919 7.7457485 -0.92993343
6.8539772 0.62072945 0.9371087
7.1577759 -0.77036667 1.3344557
-0.32957458 8.3839121 -1.4588695
0.32121277 6.2574921 -1.2137583
0.41596603 6.2671337 -1.2965796
5.0203133 2.7294903 1.8127805
1.8972664 3.5294304 0.37735084
6.7608376 0.61702347 1.4389424
6.4992561 1.3179798 1.2287261
-0.077392578 1.9971027 2.4894047
0.12081146 2.0003815 2.5053034
0.52059555 2.0118904 2.7710121
0.62226486 2.0113697 2.8176851
-4.8801079 2.0370178 4.2577338
2.6190681 -5.3890038 3.776401
2.7202454 -5.3910332 3.7555184
2.8195877 -5.3922119 3.7374153
2.919899 -5.3946533 3.7140701
3.0204163 -5.3955975 3.7001696
3.1218109 -5.3982716 3.6847758
3.2212563 -5.3993454 3.6688528
3.3201141 -5.39958 3.6571815
3.4202957 -5.4016495 3.6464171
3.5211868 -5.4033337 3.630585
-2.3730755 6.4099731 -0.026268905
-2.1716309 6.4135475 -0.04502409
-1.9724121 6.4113178 -0.097999513
1.7227592 1.7477341 3.2708583
1.8221817 1.7493382 3.273973
-4.8807335 3.6321411 4.359138
5.3720818 2.6352539 1.3728973
-3.4182434 6.058815 1.3135225
0.92160416 1.8793373 2.9862609
5.7051697 2.3634415 1.3549502
6.4819756 1.0241508 -1.0577886
-5.5619907 4.1011715 -1.0604107
6.4819183 0.60614204 -1.6658579
1.9221878 1.747858 3.2714603
-0.97261047 7.4531269 -0.77477926
-4.8802776 2.783968 4.4202456
6.225193 1.1583557 -1.5732481
-4.4798908 3.0671082 4.3872504
6.4543228 0.88769531 -1.3625684
6.8199959 0.61986732 1.1377095
7.2706871 -0.89966202 0.13497011
-4.4035149 -0.14554405 -2.4929399
-4.301569 -0.14322472 -2.5268292
-4.6996689 -0.15644264 -2.3686466
-4.4999256 -0.14927864 -2.4582753
-4.6009083 -0.15281868 -2.4093978
-0.064838409 8.5127916 -1.5841378
0.13632202 8.5042448 -1.7386583
3.6987305 3.4836979 1.3247852
-2.8675613 6.3319759 -0.084043473
-3.2970982 6.1116581 -0.23953409
-3.5686302 5.9855919 -0.33520103
-4.1879292 6.0191364 -0.26944768
-0.87176514 3.109333 0.97688252
0.32056427 3.1398487 0.088913061
-0.7225914 3.1791954 -0.2950165
-4.6136894 5.3645134 3.1282537
-4.5134697 6.7814083 -2.1378345
-2.0151691 3.8823891 0.69589639
-4.3011265 5.916626 2.1688104
-5.04842 0.012685776 2.7848845
-1.2960663 7.7761164 -1.1072856
-3.177887 -5.2691479 3.561636
-3.0780468 -5.2626152 3.6252356
-2.9771748 -5.2612286 3.6595926
-2.8778667 -5.2597446 3.6729867
-2.7781086 -5.2588978 3.6742401
-2.6782475 -5.2587166 3.6744816
-2.5802937 -5.263258 3.6548865
-1.0459805 3.1246414 -1.1499184
6.5877075 0.46746254 -1.5612323
-6.0800362 3.9749355 -0.566576
-2.1779575 -5.2743549 3.5120437
-2.0781441 -5.2773609 3.4856858
-1.9786377 -5.2796669 3.4703398
-1.8779297 -5.2793903 3.4613531
-1.7787533 -5.2819424 3.4345555
-1.6779442 -5.2880669 3.400501
-1.5768948 -5.2883759 3.3647528
-1.4774704 -5.2901421 3.3500879
-1.3760147 -5.295723 3.2902856
-1.276722 -5.3013515 3.2539299
-1.1753159 -5.2987022 3.2803812
-4.3439121 6.8068619 -2.221664
-4.2562084 6.7695847 -2.1895671
-4.1793842 6.711813 -2.1608064
-4.1073914 6.6434441 -2.1341534
-4.041872 6.563385 -2.1098943
-3.9750881 6.484623 -2.0849793
-3.9116669 6.3974628 -2.0611632
-0.43065453 2.9644699 -0.77589834
-0.37100983 -5.9282494 4.2627215
-0.1808815 -5.2002907 4.2248654
-0.074596405 -5.2028351 4.2845507
0.037548065 -5.1849957 4.3622627
0.12231064 -5.1850395 4.4097781
0.22017288 -5.1801262 4.4376292
0.32157898 -5.1807404 4.4543114
0.42094421 -5.1789875 4.4508371
0.51928329 -5.1812935 4.4423585
3.6184196 3.5609665 1.0094308
-1.6735573 7.0016098 -0.40499511
-1.7727985 7.0002651 -0.3923687
4.8670197 2.8452301 1.7556401
0.30302048 6.1534252 -1.4047308
2.0117302 3.5470257 0.41970617
1.2174911 -5.2057571 4.2027845
1.318718 -5.2087612 4.1693993
1.4169273 -5.2126446 4.1397562
1.5190964 -5.2156391 4.0983729
1.6171608 -5.2199631 4.0680084
1.7186317 -5.2226238 4.0365744
1.817955 -5.2268448 3.9979925
1.9171333 -5.2298794 3.9712539
2.0164566 -5.2328415 3.9443054
2.1165581 -5.2363911 3.9084067
2.2166901 -5.2382526 3.884573
2.3170967 -5.2416248 3.8464351
2.418087 -5.2441349 3.8111508
2.5197639 -5.2472496 3.7778561
2.6191444 -5.2494984 3.7485199
2.7271919 -5.2523422 3.7193365
2.8199806 -5.2528515 3.7047839
2.9211502 -5.2545528 3.6883123
3.0211639 -5.2576141 3.6668751
3.1216965 -5.2580719 3.660526
3.2237206 -5.260025 3.6519151
3.3211594 -5.2598705 3.6426623
3.4204025 -5.2608852 3.6269593
3.5204849 -5.262537 3.6140962
3.621151 -5.2647209 3.6024024
-0.44900131 3.0169697 -0.63333237
4.5234299 1.8709946 2.8278251
1.0079842 3.2764988 1.0686982
1.7226982 1.8859444 3.1965027
1.5238953 1.8821354 3.1550915
1.3229713 1.8814774 3.0955451
0.11988068 1.8667908 2.6460705
-2.6309357 4.9428787 1.3572116
-3.5467567 7.7458544 -6.2378011
-1.1335793 7.6038828 -2.057194
-2.7162552 3.584938 2.5494804
-3.9086895 3.7240486 3.4646726
6.9327202 0.6280098 0.33793947
5.3662224 2.3634663 1.941944
-1.1721001 7.4531746 -0.6930002
-0.87171364 7.8959131 -1.0521346
-6.7112999 2.4865017 1.5326706
7.2344398 -0.62005615 -0.46374717
2.0225792 1.7453804 3.2665951
2.1227226 1.7461586 3.2790091
-5.00494 1.8232441 -1.354686
-1.9369545 6.69524 -1.6827791
-1.4345322 6.7007179 -2.0119357
-2.3942757 -2.7226734 2.8474684
-0.89962959 -0.22005653 -3.274493
-0.9996624 -0.22170258 -3.2613087
2.2221603 1.7495213 3.2969987
6.6579399 1.1791191 0.53935599
-4.4824677 4.4697533 3.8351803
-5.7844181 5.5869579 2.0947211
2.3224144 1.7495995 3.3083906
3.6058731 3.509882 1.290709
-3.4416809 6.0252819 -0.2911827
-4.1799698 7.015213 -6.1790709
-3.898325 6.3057461 -1.9114648
-3.7804585 6.1159401 -1.8676317
2.5600395 3.0087872 2.3563292
0.19533157 3.10326 0.043116309
-1.2039509 3.2903404 -0.47388244
-4.8080616 5.4019928 3.0553946
3.8031044 3.2186947 1.93953
-4.3947067 6.6808033 -1.9518301
4.5169792 2.6142445 2.3449714
-4.1026134 5.888052 2.2401412
-3.8006001 5.84799 2.3460376
-3.1774292 -5.1362743 3.4847364
-3.0777779 -5.1304054 3.5360839
-2.9772091 -5.128355 3.572082
-2.8763428 -5.130518 3.5920291
-2.7777729 -5.1312466 3.5919857
-2.6784878 -5.1288414 3.5831923
-2.5797462 -5.1326694 3.5791209
-2.4807568 -5.1366005 3.5411091
-2.3838272 -5.1408424 3.5027831
-2.2781544 -5.137558 3.472733
-2.1798325 -5.1439705 3.4421933
-2.0791588 -5.1461964 3.4161992
-1.9792042 -5.1477852 3.402386
-1.878149 -5.1454544 3.3957052
-1.7783394 -5.1468868 3.3825321
-1.6781921 -5.1492214 3.337527
-1.5777588 -5.1543941 3.296344
-1.476635 -5.1522026 3.3030834
-1.3775826 -5.1562653 3.2730618
-1.2773151 -5.161274 3.2227688
-1.1765003 -5.1659832 3.1912384
1.2430458 3.3185883 1.1535285
0.38394165 3.0980129 -0.47036898
0.25929642 3.0583267 -0.51654339
0.12777328 3.0146465 -0.56547064
0.0085372925 2.9873581 -0.6097312
-0.11137009 2.9625683 -0.654576
-0.20988464 2.9682541 -0.68904912
-0.3287735 2.9538708 -0.73593307
-0.27711105 -5.0728073 4.1333547
-0.17510605 -5.0719814 4.164782
-0.077224731 -5.0691051 4.1705174
0.021465302 -5.0635929 4.2094426
0.12297058 -5.0573444 4.2893944
0.22215652 -5.0493145 4.3625469
0.32203674 -5.0461521 4.3973966
0.4210701 -5.0447445 4.3999605
0.5200882 -5.0459251 4.3964767
0.6182251 -5.0485706 4.381248
0.71907425 -5.0508976 4.3482633
-3.9784584 5.1679745 3.1327538
0.92175293 -5.065382 4.2715993
1.0197067 -5.0664291 4.2290344
1.1166763 -5.0674534 4.2006869
1.2184715 -5.0703773 4.1569428
1.3156738 -5.0765362 4.1247525
1.4159317 -5.0796242 4.0888247
1.5164299 -5.0828743 4.0537782
1.6171112 -5.0861568 4.0188603
1.7175713 -5.0888233 3.9832652
1.8175659 -5.0924721 3.946506
1.9185753 -5.0944424 3.9122031
2.0182953 -5.0964375 3.8848083
2.1193581 -5.0989494 3.8517442
2.2192078 -5.1006145 3.8249502
2.3197899 -5.1041145 3.7897725
2.4198265 -5.1058407 3.7632289
2.5207596 -5.1094131 3.7363417
2.6209297 -5.110651 3.7180696
2.7210655 -5.1112404 3.7040691
2.8216705 -5.1137066 3.6958544
2.9218254 -5.1130581 3.6944578
3.0219116 -5.1155262 3.6860526
3.1216011 -5.1135941 3.6971385
3.2222443 -5.1182079 3.6778481
3.321888 -5.1167355 3.6736727
3.4235229 -5.1230812 3.6442187
3.5207367 -5.1204185 3.6187928
3.6215553 -5.1253433 3.5845013
4.6214333 1.8668652 2.8077409
2.6288414 2.7170849 2.682837
3.4201927 1.8816853 3.1086273
1.6224213 1.8859978 3.1730111
1.4231606 1.8822212 3.1206489
0.31780243 1.8738575 2.7743301
0.21737671 1.871954 2.6995621
0.72143173 2.0160961 2.8485982
-5.38064 5.3109741 2.9308696
-5.278904 5.3094788 3.0049102
-5.1782436 5.3094196 3.0675528
-5.078722 5.3115215 3.1068194
-1.7707539 3.4111309 0.9402436
-5.3771439 3.6289711 4.3283787
-2.4728565 5.9746418 0.23040906
-1.2723675 7.450737 -0.68362862
-1.4708405 7.4484921 -0.711505
6.5333557 0.46305084 -1.6589985
6.4706154 0.45935059 -1.7594069
7.1958389 -0.6254921 0.83525097
2.6962852 0.93640137 -3.0999908
-4.6995907 -0.4433651 -2.4082863
-4.6000309 -0.43994141 -2.4477565
-4.500227 -0.43650055 -2.4868963
-4.3981647 -0.43327141 -2.5328131
-4.1994858 -0.42988968 -2.5616534
-4.2999554 -0.43108177 -2.5503187
-0.63246727 3.0782452 -0.70425642
5.2300377 2.5157948 1.8904748
-1.2737522 7.1535931 -0.56130809
-1.1669579 7.1575108 -0.63467479
2.1936874 3.5733585 0.6300627
-4.6820927 4.050745 4.1165528
3.5037079 3.5220718 1.2543378
1.0789566 2.9357738 1.9769667
-3.9420872 5.9876213 -0.32568488
-3.8333473 6.2250881 -1.8875782
-4.0317574 6.4643688 -1.9606419
0.4472084 -0.47011566 4.3946624
-0.81561661 3.207283 -0.32964778
-1.3029385 3.3063297 -0.51041764
-6.5289288 2.0823383 3.0335975
2.2675667 0.22128296 4.3784862
-4.0182838 6.3725529 -1.8108734
1.3963966 3.1507244 1.7925881
1.2810898 3.1354237 1.7515576
7.3935204 -2.5970116 1.5362611
-3.0754414 -5.0032024 3.4421318
-2.9741955 -5.0084038 3.4612107
-2.8760586 -5.004694 3.4650993
-2.7767601 -5.0103531 3.4724236
-2.6791897 -5.0105247 3.4658902
-2.5796242 -5.0084515 3.450736
-2.479269 -5.0041027 3.4309299
-2.3789368 -5.0071163 3.381953
-2.2796154 -5.0130634 3.3532064
-2.1781082 -5.010416 3.3329875
-2.0776787 -5.0134201 3.3070309
-1.9775429 -5.0144253 3.2834494
-1.8775749 -5.0132866 3.2957439
-1.777338 -5.0120201 3.2870388
-1.6768665 -5.0119038 3.2561412
-1.576992 -5.0179558 3.2251251
-1.4773998 -5.0180721 3.2355354
-1.3772068 -5.0171967 3.2380693
-1.2778034 -5.0255375 3.2026362
-1.1771164 -5.0263767 3.156836
-1.078783 -5.0219364 3.1673968
-4.2744904 6.1018448 -0.88602984
-6.1412659 5.6329479 1.4017432
-4.5851822 6.0197906 1.7753584
-4.9076786 6.010067 1.6623282
2.0684204 0.37074471 4.1589093
5.6405792 1.9769802 -1.4607174
-6.5153427 2.0810108 2.4342129
-0.27275848 -4.9459839 4.0433455
-0.1761322 -4.9369202 4.0962467
-0.075366974 -4.9348011 4.130075
0.026103973 -4.9346352 4.1508393
0.12410355 -4.9272404 4.1929483
0.2220459 -4.9192772 4.2556586
0.32167816 -4.9137306 4.315105
0.42154312 -4.9135685 4.3254666
0.52078629 -4.9144039 4.324614
0.61948013 -4.9154987 4.3124199
0.71691132 -4.9218235 4.2823286
0.81613541 -4.9253025 4.2464895
0.91626358 -4.9300194 4.1997471
1.016922 -4.9337597 4.1534781
1.1173439 -4.9369698 4.1177516
1.2176857 -4.9406376 4.0822825
1.3181 -4.9440269 4.0323648
1.4177475 -4.94837 3.9945631
1.5172272 -4.9500217 3.9639287
1.6178246 -4.9529209 3.9321527
1.7190971 -4.953846 3.8987432
1.8204956 -4.9561863 3.8672304
1.9207268 -4.9584179 3.8432853
2.0215378 -4.9608974 3.824971
2.1218605 -4.9624825 3.8134685
2.2220192 -4.9644451 3.8037243
2.3216629 -4.9651852 3.796783
2.4224968 -4.9673347 3.7945495
2.5216904 -4.9642715 3.8014081
2.6214409 -4.9643555 3.8025687
2.7214928 -4.9594631 3.8242736
2.8221741 -4.9496651 3.8692038
2.9228363 -4.9419746 3.9048676
3.0223541 -4.9390507 3.9294665
3.1213112 -4.9381523 3.9415987
3.2201691 -4.9372177 3.9536808
3.3188438 -4.9365673 3.9400716
3.4184036 -4.9459896 3.8812053
3.5169334 -4.9552422 3.7922873
3.6247177 -4.9758053 3.7186842
-0.87679672 1.994688 2.3908482
-0.67869186 2.0014534 2.4110065
-0.77707291 1.9934692 2.4010859
-2.1761742 1.9986668 2.4518344
2.4225121 1.7488899 3.3166802
6.9747849 -1.0593967 -1.4621732
1.922348 1.886631 3.2094767
2.022953 1.8830605 3.202929
-0.75997162 3.2010231 -0.16274875
-4.0801506 5.0278053 3.2955203
-4.1808071 5.0281258 3.3573294
-4.977129 5.3071022 3.1532013
-4.4793186 5.3038292 3.2002652
-1.2585773 7.8950729 -1.376832
6.7817917 0.61700439 1.3379476
-2.4729061 6.1204166 0.16797471
4.7031212 2.9413795 1.6951669
1.164032 3.3580933 0.10804579
2.5221405 1.7494678 3.3288724
0.3935318 2.8700943 1.4378761
6.7312355 0.8977356 1.0385112
5.8256226 -5.1311836 2.0950186
5.9254112 -5.1363735 2.0453548
-2.2303753 6.0940952 -1.5002652
-0.038230896 7.9013147 -2.7046642
5.4039688 -0.63627052 -3.1077361
-0.38939667 -0.35547638 -3.3683567
-0.50034714 -0.35659409 -3.3383198
-0.30351257 -0.34789276 -3.4164093
-2.2723694 6.5555725 -0.12973148
-0.54590034 3.0386658 -0.67114818
-6.2093563 5.6563873 0.63164622
6.1052742 1.7772694 1.6474342
6.4344406 1.3084011 1.5413507
0.13669205 8.6666069 -1.7599554
5.480217 -0.23955727 3.5441077
2.6215744 1.7494774 3.3292527
3.0041008 3.5890236 1.0716574
2.358551 3.5771084 0.83439696
3.3546906 3.3866005 1.7752388
3.4474678 3.3580189 1.8089583
-1.7756462 3.2951202 1.0882131
-0.20659256 3.0395184 0.04109038
-1.4017868 3.3219204 -0.54667377
-6.2044125 2.7415886 -0.66539639
2.3441086 0.41059685 4.1083426
-1.5902328 7.3523769 -0.63936675
-3.8912067 6.2026386 -1.764129
-3.7798672 6.0019321 -1.7220773
-3.6750221 5.7901344 -1.6831076
0.30558777 -0.47326279 4.2544804
-2.9771328 -4.8724594 3.2944932
-2.8777561 -4.8685589 3.3090544
-2.7772083 -4.8763084 3.3161449
-2.6775703 -4.8739128 3.2939422
-2.5778885 -4.8742619 3.293932
-2.4777374 -4.8756618 3.2692595
-2.3773861 -4.8765278 3.2332785
-2.2777576 -4.8829098 3.2046814
-2.1772747 -4.8822937 3.1821849
-2.0773449 -4.8823414 3.1709557
-1.9771652 -4.8835354 3.1694739
-1.8775196 -4.8822575 3.1713083
-1.777441 -4.8810539 3.184283
-1.6778049 -4.880476 3.1644351
-1.5770798 -4.885767 3.1547127
-1.4771175 -4.8817673 3.1734054
-1.3771381 -4.8819771 3.1734159
-1.276865 -4.8833847 3.1418433
-1.1768951 -4.8864384 3.1144061
-1.0774746 -4.8871326 3.102154
-0.97815514 -4.8866215 3.1127758
0.13275528 -0.14941788 -3.8297718
-0.30144882 2.9143524 -0.8726874
-0.40374565 2.9234543 -0.91262752
-0.4958992 2.9508419 -0.94761926
-0.58451843 2.9825172 -0.97885305
-0.67227745 3.0195999 -1.0117903
-0.76503944 3.0470867 -1.0468327
-0.17449951 -4.8105602 3.9751501
-0.075138092 -4.8031483 4.0467916
0.023132324 -4.7967167 4.085948
0.12657166 -4.7967472 4.1265354
0.22457123 -4.7903099 4.1675615
0.32155991 -4.7841301 4.1966949
0.42218781 -4.7873993 4.2046685
0.52115631 -4.7880287 4.1934958
0.61988831 -4.7894516 4.1812806
0.71925735 -4.7924442 4.1571426
0.81946945 -4.7948437 4.1220675
0.91737366 -4.803915 4.0802493
1.0186157 -4.80439 4.0457711
1.1206818 -4.8055477 3.999162
1.2214432 -4.8094044 3.9414537
1.3215752 -4.8118954 3.9062381
1.4214439 -4.8127022 3.8951867
1.5213547 -4.8136196 3.8833354
1.6217346 -4.8154564 3.876452
1.7215729 -4.8157082 3.8778522
1.8193855 -4.8202972 3.864007
1.9207115 -4.8213139 3.8807979
2.0210381 -4.8113708 3.9265075
2.1215363 -4.8032551 3.9576926
2.2216606 -4.7994308 3.9934647
2.3217964 -4.7972832 4.0048523
2.4216461 -4.7921982 4.0146875
2.5231094 -4.7877178 4.0365038
2.6223335 -4.7889652 4.0512705
2.7216301 -4.7909679 4.0664353
2.8218498 -4.7883015 4.0896144
2.9215813 -4.7887535 4.0902042
3.0210342 -4.789196 4.1038036
3.1207771 -4.7854404 4.1129146
3.2202911 -4.7860451 4.1006536
3.3194733 -4.7889576 4.0768147
3.418644 -4.7918339 4.0401464
3.5203018 -4.8024693 3.9854803
3.6175308 -4.8033638 3.9338839
3.7149124 -4.8079872 3.8566172
-4.9800186 4.1909466 4.1032033
-5.079216 4.1906376 4.1026626
-0.57875252 2.001997 2.4349291
-3.1929855 5.7162685 2.3795815
6.1613121 1.6844177 1.6680014
2.1220665 1.8877506 3.2109418
-4.8805771 4.1914921 4.0920749
-4.7804623 4.1929607 4.0711203
-4.6809101 4.1923389 4.0469584
-4.4802265 5.0282135 3.4560475
-4.5798454 5.0266399 3.4791527
-4.379776 5.3041744 3.1878664
-4.0799904 5.3074455 3.1034284
-3.9680443 5.2965965 3.0538194
-5.4220562 -0.14950752 -1.7586401
7.0052338 0.49085236 0.03770934
-2.074749 6.116127 0.036453687
6.7043839 1.0373878 0.83867276
-5.078043 4.7508678 3.6979926
-4.819231 5.6060562 2.746022
-0.16872406 8.2032804 -1.4771874
5.9251595 -4.9839878 2.1335998
6.0250473 -4.9883175 2.1119885
6.1245155 -4.9860287 2.1230555
6.2238426 -4.9865513 2.139154
6.3236313 -4.9851742 2.1516988
6.4243088 -4.9812946 2.1741724
6.5244331 -4.977766 2.1831539
1.1220741 1.8805218 3.0353479
-2.0736427 6.557127 -0.14119691
-1.6670723 6.5619278 -0.30353841
1.4034538 6.8430004 -2.1386099
5.9068604 2.1323528 1.4304422
-1.4723911 7.3000183 -0.57790035
6.6116066 0.89174461 1.6405138
5.668335 0.68070412 2.9426599
0.1207428 8.7596464 -1.9183247
0.22461319 8.7980347 -1.9095197
0.33261871 8.8213272 -1.9380701
1.6752281 3.4922276 0.5841884
0.81753159 3.2779999 0.27056041
2.7120705 3.3600712 1.8316847
3.6341209 2.7212238 2.6024792
-4.2282333 5.5003395 2.9565411
-4.7475815 6.6470947 -2.0711093
-4.3115673 6.6369228 -1.9192499
-1.6989288 7.3512745 -0.67823625
2.3365822 3.4838181 1.4041834
-3.6963902 5.7264423 -1.3995795
-4.066885 6.2540913 -1.5398148
-4.281414 6.4601917 -1.6197586
-2.9768715 -4.7543049 3.041501
-2.8768063 -4.7512188 3.0793712
-2.7747211 -4.7435379 3.1118779
-2.6769981 -4.748354 3.0932417
-2.5772247 -4.7530975 3.0668192
-2.4773369 -4.7579727 3.0516965
-2.3768749 -4.7578125 3.0628989
-2.2771587 -4.7538357 3.0421906
-2.1766891 -4.7547112 3.0415504
-2.0770645 -4.7515926 3.0564997
-1.9772129 -4.7514305 3.0568013
-1.8776779 -4.7503643 3.0588148
-1.7776222 -4.7479153 3.0846331
-1.6776276 -4.7467003 3.0978177
-1.5779037 -4.7449532 3.1028435
-1.4774475 -4.7453232 3.1039643
-1.3770313 -4.7466011 3.0997627
-1.2763615 -4.7478638 3.0798414
-1.1766453 -4.7489796 3.0758989
-1.0767059 -4.7492199 3.0647995
-0.97772598 -4.7499104 3.0519669
-0.88012314 -4.7457027 3.0573261
-4.2933807 6.9317226 -2.4919913
-4.2109566 6.8846474 -2.4610112
-4.1333523 6.8267746 -2.4325893
-4.0586967 6.7657089 -2.4054215
-3.9886055 6.6916409 -2.3785777
-3.9281063 6.6007843 -2.356257
-3.8688316 6.5095329 -2.3348997
-0.074176788 -4.6799011 3.8909154
0.023643494 -4.6710758 3.9532981
0.12160873 -4.6638832 3.9921861
0.22307968 -4.6648808 4.0247469
0.3221283 -4.6630268 4.0264721
0.42184067 -4.6652203 4.0145965
0.52119064 -4.6667938 4.0021219
0.62077332 -4.6683083 3.9897985
0.72253036 -4.6673546 3.9464352
0.82151794 -4.6712379 3.9194536
0.92150116 -4.6733818 3.8847787
1.0215225 -4.675272 3.8601646
1.121376 -4.6751575 3.8609059
1.2215462 -4.6728878 3.885134
1.3205566 -4.6712303 3.9156384
1.4208221 -4.665102 3.9740174
1.5210609 -4.6644573 3.9983211
1.6218605 -4.6544647 4.0268717
1.72229 -4.6497192 4.0615873
1.8231583 -4.6420727 4.1066718
1.9224243 -4.6436577 4.1227078
2.0211754 -4.6500282 4.1166286
2.1217232 -4.6448479 4.1247959
2.2212791 -4.6465511 4.1400013
2.3221359 -4.6394634 4.1596737
2.4210243 -4.6457634 4.1529455
2.5220604 -4.6392078 4.1730671
2.620903 -4.6429424 4.1899061
2.7213097 -4.636013 4.2224579
2.82127 -4.6332684 4.2326665
2.9209671 -4.6347332 4.2345433
3.0208664 -4.6379604 4.2383556
3.1207886 -4.6384964 4.2258348
3.2201958 -4.6374702 4.2108178
3.3200569 -4.6404648 4.1877799
3.4195824 -4.6438541 4.1514106
3.5207901 -4.6509857 4.1071744
3.6201744 -4.656004 4.0458798
3.7156067 -4.6511021 3.9721963
-4.580265 2.7854977 4.459054
1.7231216 2.7113934 2.6058693
7.1778488 -0.20244789 -0.46211046
-6.2607594 1.6680984 0.83452678
2.7212296 1.7513046 3.3236284
-4.7802181 2.7846165 4.4433193
-3.0912533 6.0421562 0.41523951
3.2750244 3.6317749 0.74081808
-4.5823841 4.1902599 4.0081711
-4.9801865 2.7830601 4.3838921
-4.6792965 5.0263939 3.4912617
-4.7784805 5.0272789 3.4924743
-4.8780937 5.0290966 3.4821486
-4.9775715 5.0284233 3.4687963
-3.8747978 5.2983608 2.9978237
-3.7802334 5.2978096 2.948334
-3.6847935 5.2983532 2.9018283
-3.5749226 5.3068142 2.8483596
-3.4909611 5.2987919 2.823921
2.6358986 3.6093578 0.7927314
2.5266342 3.6019573 0.75243348
5.926178 -4.8351097 2.2128067
6.0248489 -4.8375454 2.1729686
6.124527 -4.8389568 2.1769555
6.2240028 -4.8352299 2.1995964
6.3224564 -4.8364925 2.2200217
6.4230385 -4.833004 2.2424238
6.5235214 -4.832056 2.2546887
6.6241493 -4.8303165 2.2656059
6.7242775 -4.8283195 2.261313
-6.2594585 4.6737556 2.3260946
2.8209724 1.7502537 3.309896
-5.0801754 3.6327572 4.3824782
2.4092522 3.6044617 0.422337
-3.5800858 5.5829048 2.708189
7.1176453 -0.35010147 1.2349572
2.9205475 1.7488346 3.2845829
7.0055809 0.34816551 0.73673737
-0.86828804 7.7522058 -0.90618819
0.43386841 8.806262 -2.0179791
6.983345 -0.21841431 1.635247
0.069271088 3.0711727 -0.0030693058
-0.90469551 3.2406616 -0.36184758
-1.5007458 3.3340111 -0.5830698
-4.605566 6.6986828 -2.0245121
-4.2307224 6.5858536 -1.8909935
-4.1580219 6.5183849 -1.8634269
-3.517334 5.2644253 -1.3152096
-3.7557812 5.8173981 -1.422518
-4.1371708 6.3247566 -1.5655184
-4.3685951 6.5020657 -1.6499814
-4.5711975 6.5431309 -1.7172045
-2.8767986 -4.642004 2.712563
3.0202103 1.7472191 3.2588587
-2.6739063 -4.6143227 2.8277683
-2.5790997 -4.6292191 2.8879197
-2.4778538 -4.6267567 2.85532
-2.3824463 -4.6215019 2.8220675
-2.277813 -4.6259785 2.8672945
-2.1776791 -4.6224728 2.9056461
-2.0785522 -4.6176643 2.9468095
-1.9783611 -4.6162224 2.9714055
-1.8765984 -4.6159477 2.9922006
-1.7780609 -4.6118603 3.0226209
-1.6778221 -4.6098309 3.0476584
-1.5775871 -4.6086922 3.0604532
-1.4775372 -4.6088524 3.0607643
-1.3771133 -4.6090984 3.0524654
-1.2768135 -4.6099625 3.0483947
-1.176012 -4.6102467 3.0416067
-1.0759373 -4.6107349 3.0314565
-0.97506714 -4.6133499 3.0054815
-0.8771019 -4.6154633 2.9852536
-0.77779007 -4.610754 2.9939668
2.2668877 0.33760834 4.2293878
-0.90534592 3.1595764 0.81694382
1.9913979 0.55302429 3.6780024
-1.6535683 3.3605556 0.54204053
-3.140461 6.0402927 0.54323095
-4.6257496 6.290163 -1.3017896
-0.077613831 -4.5555725 3.6424241
0.021224976 -4.5470009 3.7072277
0.12245178 -4.5462322 3.7559037
0.22141647 -4.5423279 3.758404
0.32162094 -4.5428238 3.7824345
0.42168808 -4.5439491 3.7456825
0.52171707 -4.5441341 3.7578332
0.6206665 -4.5453167 3.7350194
0.72198486 -4.5439987 3.7577965
0.82027054 -4.5419254 3.7751908
0.92131042 -4.540308 3.7975585
1.0209999 -4.5368118 3.8360894
1.1231461 -4.5299816 3.8939238
1.221611 -4.5235844 3.9708207
1.3210678 -4.5153389 4.0556245
1.4175186 -4.5096016 4.1179867
1.5219727 -4.5058136 4.1376553
1.6213646 -4.5053005 4.1511374
1.721199 -4.502634 4.175036
1.8210983 -4.500803 4.1998725
1.9212837 -4.4980965 4.223412
2.0216293 -4.4957867 4.2344503
2.1207924 -4.4955292 4.2614012
2.22052 -4.4925709 4.2982302
2.3208466 -4.487854 4.3328953
2.420929 -4.4830303 4.3679504
2.520752 -4.4787159 4.3908539
2.6205177 -4.4821815 4.393795
2.7215424 -4.4956417 4.3440003
2.8206062 -4.4898205 4.3230958
2.9206429 -4.4853172 4.3297896
3.0202484 -4.4825897 4.353178
3.1205902 -4.4864311 4.3460593
3.2216225 -4.4927807 4.315084
3.3211288 -4.4948444 4.2765784
3.4197006 -4.4957905 4.2364144
3.5177689 -4.497076 4.1960988
3.6226425 -4.4929428 4.146019
-3.5748768 5.2369385 -2.0407801
-6.4029255 2.7462597 -0.26767042
-3.5783939 6.4858513 -2.9386322
0.023799896 -0.34294891 -4.0535493
-4.3481693 7.5780249 -6.0817704
-4.7794724 3.3504086 4.3754869
-3.4938011 4.7743034 -1.4505659
-6.7817211 2.7557716 0.93131596
5.9552002 1.8648167 -1.138549
1.7285995 3.5033798 0.45955998
-2.6107235 4.4812412 1.657972
2.0234985 2.7112579 2.6667938
1.374527 3.4321022 0.32950407
-3.4888649 6.0173531 -3.4394281
-5.8587475 1.2421246 1.2354711
-5.0784531 5.0314064 3.4345317
-5.1803036 5.0347233 3.3877661
3.0002365 3.6506195 0.21147619
-6.2902718 4.5372009 2.1279399
-0.00096130371 2.9465752 0.99811047
-0.25256348 2.9869919 -0.56069905
-1.9719601 7.0012074 -0.41660735
5.9234352 -4.678194 2.3214602
6.0277061 -4.6925259 2.2301879
6.1247711 -4.6909237 2.2126787
6.2239113 -4.6899452 2.2276013
6.3233376 -4.6870823 2.2524996
6.4231415 -4.6844025 2.2776983
6.5228233 -4.6826267 2.3057442
6.6232986 -4.6824608 2.3211367
6.7241173 -4.6802387 2.3286359
6.8257103 -4.6839046 2.3212795
-1.2757454 2.001421 2.4695745
-6.1354599 2.7400532 -0.86462396
-3.72616 6.009613 -4.9422169
6.6433487 1.1768608 0.73920614
6.6600876 0.61007118 1.7393526
-4.77812 5.1671638 3.3542237
-1.572382 7.0040798 -0.42525515
-4.3779812 2.6452656 4.4423995
5.3469963 0.68130684 3.1792526
-6.1015186 2.4681625 -0.8670935
-6.3020954 3.4297543 -0.36859402
-0.013809204 8.6297131 -2.2708895
-0.3978653 3.0752926 -0.029448008
-4.7977867 6.015276 1.7005813
-1.811964 7.337677 -0.72048801
-3.5621071 5.3703976 -1.3428112
-3.7294979 5.8911858 -1.7033293
-3.627039 5.6695919 -1.6653411
-4.9154835 0.016799927 2.9347346
4.3667297 3.2650814 1.1425889
2.122242 3.4879074 1.3271772
1.1821518 0.31769562 3.848532
1.7887459 3.4613094 1.2053311
-1.1674423 3.0189629 1.3130069
-2.4646339 -4.5251827 2.5643232
-2.3726673 -4.5035 2.7214625
-2.2782574 -4.4938507 2.7541411
-2.1778049 -4.4890041 2.8170772
-2.0780125 -4.4839745 2.8687325
-1.9792938 -4.479948 2.909543
-1.8787365 -4.4768829 2.9472439
-1.7786922 -4.473505 2.9852049
-1.6801243 -4.4705372 3.0148022
-1.5775471 -4.4695606 3.0346711
-1.4774799 -4.4695721 3.0358422
-1.3770771 -4.4700756 3.0303526
-1.2763748 -4.4701958 3.0280647
-1.1763039 -4.4703522 3.0274856
-1.0763378 -4.4714203 3.0125239
-0.97566223 -4.4744015 2.9771779
-0.87636375 -4.4771996 2.9480498
-0.77621078 -4.4772797 2.9279008
-0.67609406 -4.4763927 2.918705
-0.5780983 -4.4643002 2.9367166
5.6721649 2.4150715 1.1997464
5.7427368 2.3456039 1.2264638
5.8117676 2.2705402 1.2522233
5.8782539 2.1927776 1.2772305
5.9441833 2.1144161 1.3020952
0.023952484 -4.4412079 3.3872449
0.12502289 -4.4377823 3.4366579
0.22232056 -4.4346809 3.4152532
0.3235321 -4.4317036 3.452105
0.43111801 -4.4304638 3.5063632
0.53069687 -4.4219322 3.5821478
0.62042618 -4.411644 3.6585507
0.72068405 -4.404932 3.7343817
0.82173157 -4.3966923 3.8214884
0.92350769 -4.3884544 3.8940761
1.0229034 -4.3826351 3.9559131
1.121582 -4.380312 3.9947984
1.2245598 -4.3717213 4.0492697
1.3270302 -4.3647251 4.1190252
1.4227104 -4.360054 4.1837425
1.5199585 -4.3603897 4.2143784
1.6207924 -4.3582134 4.2241073
1.7205963 -4.3560028 4.2487946
1.8206902 -4.3523102 4.2848463
1.9212875 -4.3489895 4.3069377
2.0198898 -4.3485451 4.3353682
2.1218338 -4.3396664 4.389298
2.21875 -4.3414974 4.4190488
2.3208923 -4.3356991 4.4527602
2.4203682 -4.3328629 4.490459
2.5200844 -4.3313828 4.5167642
2.6203995 -4.3309402 4.5155973
2.7202682 -4.336832 4.4415407
2.8202095 -4.3405724 4.3918715
2.9207344 -4.3396664 4.4051661
3.0199471 -4.3367138 4.4262342
3.1200218 -4.337368 4.4284139
3.2209244 -4.3409004 4.4084668
3.3224144 -4.3474312 4.3517823
3.4212532 -4.350584 4.2999821
3.5189667 -4.3510132 4.2705979
3.6208382 -4.356926 4.2396159
-4.6802177 3.3489246 4.3377819
-4.5822353 3.3460236 4.3070211
6.9655075 0.066013336 -0.96093959
7.1319008 -0.20732498 0.93558735
7.1191788 -0.20845795 1.0357031
-4.8797626 3.3509941 4.4116664
3.3194733 1.882576 3.1439874
-4.9812241 3.0660286 4.3947091
-4.9805698 3.3509312 4.430984
-5.8214359 1.9055138 3.7898619
-6.512291 2.2092781 -0.065562546
-4.6823196 3.9100761 4.1762309
-4.7811337 3.9117603 4.214107
-4.8801517 3.9135723 4.2412424
-4.9803295 3.9127045 4.2620487
6.0308952 1.809164 -1.0799741
-6.5477333 2.2101002 0.033539765
3.1193886 1.7459736 3.2433448
2.223484 2.7108803 2.7030551
2.2313042 3.3469963 1.8020748
4.2914352 3.3535461 0.8290841
6.9505692 0.48731613 -0.56054842
4.2373009 3.3118019 1.2377781
6.0260506 -4.5375729 2.3261378
6.1263237 -4.545763 2.2552762
6.2245674 -4.5445709 2.2549078
6.3235435 -4.5425663 2.2677231
6.423214 -4.5394955 2.2906621
6.5229187 -4.5372181 2.3164694
6.6226501 -4.5365925 2.3337624
6.7236519 -4.5338192 2.3543031
6.82444 -4.5350094 2.3579223
6.9243393 -4.5337276 2.3510468
-4.3788414 2.0765133 4.315753
5.0012703 2.9531994 1.2342871
4.7555046 3.0993271 1.1433828
2.3409996 3.350399 1.8407624
6.6823044 1.1810379 0.13912016
-5.2705669 4.6096992 3.7501299
4.8830223 2.7592125 1.9058789
1.1025887 6.5547047 -1.8299164
1.1738701 6.5774231 -2.0136323
-5.0765228 5.3466091 -1.3744313
-6.0765934 2.6029377 -0.96444595
0.090072632 3.0348759 -0.43347791
4.8764229 3.0085163 1.3306981
-3.8178101 5.9059563 -1.4456576
3.8902435 3.1804161 1.9713228
1.1600342 3.11063 1.7093409
-5.3804417 5.4607887 2.7109756
-1.378767 7.5849895 -0.85057801
-1.4921837 7.5728922 -0.89179617
-4.518446 6.052042 1.6520618
-1.4343071 2.7802505 1.6641871
-4.3619919 6.1396236 -0.91794467
4.2613564 2.8711758 2.1082978
-2.2670193 -4.3670673 2.653873
-2.1740112 -4.3549538 2.7489066
-2.0751038 -4.3471069 2.8259482
-1.9785061 -4.3419991 2.8700984
-1.8779869 -4.3378658 2.9195724
-1.7766552 -4.3336258 2.9675982
-1.6793537 -4.3309689 3.0010624
-1.5782738 -4.3286819 3.0248821
-1.4785156 -4.3288326 3.0325124
-1.3771477 -4.3287239 3.0336366
-1.2762222 -4.3289909 3.0295086
-1.1759338 -4.329998 3.0148273
-1.0758724 -4.3322258 2.9896724
-0.97520828 -4.3342457 2.9639888
-0.87459373 -4.3376789 2.9267113
-0.77540779 -4.3391933 2.9008269
-0.6729126 -4.3404579 2.8671489
-0.5766716 -4.3458576 2.8320379
-0.47333145 -4.3397007 2.8328424
-3.7558384 6.4249306 -2.4370925
-3.6962357 6.3405762 -2.4156053
-0.94861412 2.5755806 1.9966509
-0.86174393 2.5332127 2.0238919
-0.78386307 2.4779339 2.0552213
0.12748718 -4.3086853 3.1300597
0.2273941 -4.3123646 3.2335312
0.32917786 -4.3024902 3.333504
0.42621613 -4.2903652 3.4498646
0.52205658 -4.2789726 3.5678914
0.62339783 -4.2670593 3.6929591
0.72731781 -4.2539768 3.8155446
0.82466125 -4.2447243 3.9184775
0.92401505 -4.2353401 4.0147843
1.0225792 -4.2301807 4.076508
1.1221352 -4.2283268 4.1011243
1.2225075 -4.2268677 4.11235
1.3222771 -4.2233849 4.1483908
1.4229736 -4.216032 4.2187643
1.5214539 -4.2133312 4.2589908
1.6194878 -4.2140255 4.2756867
1.7209625 -4.2092934 4.3075743
1.8207169 -4.2059841 4.3444943
1.9209099 -4.203289 4.3680139
2.0202217 -4.2004337 4.4058313
2.1207161 -4.1952114 4.4524589
2.2190742 -4.1942024 4.4813905
2.3209114 -4.1893559 4.5122485
2.4207573 -4.1859226 4.548099
2.520153 -4.1843166 4.5754442
2.6201439 -4.1838627 4.574327
2.7197876 -4.18857 4.5126443
2.8203392 -4.1940289 4.4519401
2.9220619 -4.1981392 4.4494133
3.0205803 -4.1956062 4.4560685
3.1202736 -4.1952877 4.4531002
3.2205887 -4.1978264 4.4318647
3.3205757 -4.2023678 4.3832736
3.420742 -4.2079716 4.3235784
3.5190239 -4.2061119 4.3169122
3.6217041 -4.2104931 4.3153458
3.7224121 -4.19911 4.2933898
1.4229736 2.7085056 2.5174165
6.347744 1.0203552 -1.460472
-4.7817097 3.6310577 4.3216343
-3.5290012 7.5899744 -6.1371346
-2.9719181 2.0017204 2.7222021
3.219841 1.8834953 3.1690595
3.1199265 1.8844128 3.1941915
-1.6771431 1.9965935 2.4623635
-5.1809063 3.3513908 4.4357719
-5.2809925 3.3509178 4.4224191
6.3464279 0.16812134 -1.9621226
0.054157257 8.4812412 -2.5651889
0.42022705 1.873867 2.847156
-3.6867733 6.9527683 -3.739023
-5.0797558 3.9116974 4.2604055
-5.1781311 3.9093971 4.2560706
-5.2794914 3.9128666 4.2275267
-5.3757763 3.9082394 4.1962085
2.6675224 3.6247234 0.087803364
-5.422493 4.6755276 3.589932
5.562561 2.5001736 1.3015165
-0.30472946 3.0508099 0.0048635099
6.6663742 1.1774006 0.4390749
6.1240005 -4.3926296 2.3224893
6.2281914 -4.4016972 2.2647722
6.3242874 -4.3991966 2.2684839
6.4234314 -4.397438 2.2806585
6.5227509 -4.3946552 2.3053765
6.62257 -4.3923264 2.3311141
6.7233009 -4.3901882 2.3538826
6.8237381 -4.3894043 2.367367
6.9243126 -4.3897266 2.3691783
7.0252228 -4.3914528 2.3581161
0.021339417 1.9997444 2.4802012
-3.1928616 5.6845474 2.4215934
-5.672575 5.4467449 2.4636846
-3.8849506 5.4379959 2.9138947
-3.7775726 5.4488373 2.8676786
-3.67663 5.4492474 2.8321521
5.5182877 0.68271446 3.0760293
6.182251 0.68032265 2.4553554
5.8190384 1.7933464 2.1110921
5.7608643 1.8849964 2.0904074
6.9415321 0.62790298 -0.16178931
-0.51375389 2.9726067 1.1091157
6.6593857 1.036747 1.1394562
-4.2080975 6.3952217 -1.5912938
3.9765968 3.1393414 2.0010765
-0.27388 2.2252693 2.2436321
-1.8064766 3.4307613 1.0724481
4.0572357 3.0892696 2.0299652
4.0603561 2.9803677 2.1754482
-4.6207924 5.577877 2.8181438
-3.4723148 5.8833218 2.1694269
-4.6531734 6.033844 -0.29137358
-4.4310741 6.0952129 0.51686358
-2.1696129 -4.2194519 2.6947415
-2.0804119 -4.2070885 2.7871594
-1.9765358 -4.2032433 2.8541183
-1.8786907 -4.1985321 2.9085393
-1.7791309 -4.1941776 2.9609625
-1.6774139 -4.189476 3.0081298
-1.5792866 -4.1887627 3.0288401
-1.4780388 -4.1877155 3.0411565
-1.3771496 -4.1879349 3.0414989
-1.2765617 -4.1888561 3.0318084
-1.1748009 -4.1915207 3.0090351
-1.076334 -4.190691 2.9987261
-0.9748764 -4.1943932 2.9649291
-0.8768692 -4.1962223 2.9318118
-0.77695465 -4.1997547 2.8945827
-0.67380905 -4.2048759 2.8524249
-0.57437515 -4.2065125 2.8155901
-0.47438049 -4.2110062 2.7891388
-0.37563133 -4.2092342 2.7709527
-3.3251209 6.0602875 -0.53878736
-3.8149986 6.5224857 -2.4592524
-3.6452465 6.2229309 -2.3969955
-6.1598244 2.8761749 -0.76619571
-4.094717 6.0380745 1.8010195
0.22117233 -4.1670971 3.1881051
0.32987976 -4.1564388 3.3469422
0.43000031 -4.1447792 3.498997
0.52708435 -4.1323566 3.6274889
0.62997437 -4.1195717 3.7515118
0.72642899 -4.1096725 3.8680854
0.82295609 -4.1011238 3.9693451
0.92520905 -4.0895958 4.0737834
1.0214462 -4.0859356 4.1391082
1.1229858 -4.0808506 4.1709867
1.2201424 -4.0844879 4.1663232
1.3229637 -4.079792 4.1823025
1.424736 -4.0738621 4.2413239
1.5229034 -4.0698338 4.2919831
1.6202507 -4.0692539 4.3222423
1.7206802 -4.0652485 4.3566852
1.8206596 -4.062994 4.381043
1.9208908 -4.0605793 4.4040012
2.0198517 -4.0581398 4.4438877
2.119709 -4.0546799 4.480639
2.2207031 -4.0516033 4.5010304
2.3212662 -4.0493221 4.5227895
2.4214897 -4.0457745 4.5567112
2.5201759 -4.0443363 4.5864944
2.6202812 -4.0438118 4.5887175
2.723587 -4.0478878 4.5521722
2.8218651 -4.054594 4.4832015
2.9203568 -4.0549984 4.4672089
3.0207901 -4.0564613 4.4579768
3.1207619 -4.0575638 4.445365
3.2199364 -4.0580654 4.4285831
3.3206139 -4.0619755 4.3970351
3.4198151 -4.064682 4.3560667
3.5210495 -4.0669346 4.3504634
3.6206017 -4.0652714 4.360559
3.7212448 -4.0679779 4.3389435
-5.3822765 3.064167 4.3647966
-5.2815342 3.0653114 4.3882527
-5.181448 3.065382 4.403244
-5.0818443 3.0651188 4.3938837
-2.2767105 1.9953671 2.4838133
-3.0755863 2.0063515 2.7783978
3.0204544 1.8858624 3.2079751
-1.7773914 1.9979134 2.4512453
-1.5771255 1.9974689 2.4756174
-0.67251778 8.0487089 -1.1860588
-5.3807907 3.350378 4.397047
-5.4782104 3.3486805 4.355845
6.1902542 1.7608871 1.3939022
-0.98795319 7.9952307 -1.2789187
-3.5195045 6.0162201 -2.639478
1.7246094 8.2077751 -3.5488374
6.441185 -0.67878532 -2.3593028
7.1028748 0.21398735 0.036785088
6.5416183 1.1743336 -0.76129591
-5.0776577 7.6185236 -4.5685058
-0.36870003 8.2096786 -1.3053708
-6.2857456 0.30953979 0.43918565
2.8212318 1.8878613 3.2361894
-4.7800808 4.610857 3.8222337
6.2269669 -4.2557297 2.3058171
6.3258286 -4.2595844 2.2579353
6.4241219 -4.2575703 2.2677794
6.5236015 -4.2548447 2.2911272
6.6231194 -4.2523613 2.3161049
6.7221832 -4.2504025 2.3341
6.823494 -4.2488327 2.355628
6.9236298 -4.2480583 2.3695517
7.0247307 -4.249527 2.3631508
7.1218643 -4.2629204 2.3542497
4.42313 1.8717155 2.8518152
5.2227745 2.7606907 1.3171307
5.1083412 2.8367023 1.4173472
-0.14360428 2.9909916 -0.51991099
2.4117775 3.5889626 0.71033025
-3.5761356 5.4489613 2.7954333
-3.4753838 5.4482784 2.7580235
-6.1174278 0.70620155 -0.060504436
-1.8711643 6.9988575 -0.39411113
4.5336418 3.0287323 1.6332196
-4.776062 6.7026711 -2.2067041
0.67405319 3.2274399 -0.07248868
-4.5257568 5.2044296 3.3053493
-4.4594536 6.538847 -1.6828446
-3.9618721 5.9731522 1.9946476
-4.1742744 5.8451939 2.3649898
4.1293221 3.023304 2.0575752
2.0127792 3.4830093 1.2867259
-3.5728703 6.0475845 0.097947538
-3.8649654 5.5930767 2.77845
-4.7739391 6.0090504 -0.33424979
0.42663574 2.8222561 1.5974606
-4.4315529 6.8413467 -2.2553182
1.1409645 3.332922 -0.190216
-3.076273 5.8428822 2.0209315
0.29730988 3.0383987 -0.64822477
-1.7802296 -4.0529079 2.9751742
-1.6776695 -4.0478649 3.0218043
-1.5780849 -4.0458908 3.0493708
-1.4779129 -4.0450287 3.0635946
-1.3772755 -4.0447979 3.0608375
-1.2768021 -4.0467472 3.0539842
-1.1760616 -4.0476608 3.0415339
-1.0753765 -4.0501308 3.0166795
-0.9759388 -4.0517941 2.9870148
-0.8741169 -4.0576744 2.9405925
-0.77635384 -4.0582256 2.9093683
-0.67488289 -4.0627956 2.8626289
-0.57423019 -4.066206 2.8276415
-0.47511101 -4.0676823 2.798157
-0.37658882 -4.0716133 2.7564943
-0.27737808 -4.0740566 2.7258074
-0.17732239 -4.0733986 2.7339406
1.6044044 3.3966675 1.2835559
1.7193947 3.4126663 1.3250676
-0.085826874 3.0231667 0.67516625
-4.5814114 5.8862476 2.221056
-5.1915512 6.0229321 1.1254143
-5.2479591 7.4260006 -4.7829151
-5.0035324 0.23687935 -2.058449
1.3945084 3.3452015 -0.53096002
2.4805031 3.5873966 -0.12516245
2.9332314 3.6382809 0.043815866
4.0197411 3.47439 0.44356278
1.0177155 -3.9448967 4.1827855
1.1216125 -3.9391518 4.2107196
1.2213173 -3.9392605 4.2114601
1.3226128 -3.9370747 4.2202301
1.4214401 -3.9332008 4.2728896
1.5214005 -3.928196 4.3327255
1.6173172 -3.9278622 4.375021
1.7222672 -3.9197044 4.4013243
1.8196564 -3.9215069 4.4206452
1.919426 -3.9199181 4.4469109
2.0200157 -3.915308 4.4799566
2.1197319 -3.9144974 4.4941001
2.2198334 -3.9141445 4.494482
2.3204689 -3.9125042 4.502099
2.4195557 -3.9104118 4.530695
2.5204544 -3.9069481 4.5622973
2.6202469 -3.9061317 4.5782709
2.7202415 -3.9069786 4.5634494
2.8210182 -3.9121017 4.5185781
2.9226265 -3.9181442 4.4737244
3.0218811 -3.9195023 4.4511003
3.1214485 -3.920311 4.4371886
3.2208939 -3.9209881 4.4229469
3.3215065 -3.9236603 4.402092
3.4207611 -3.9238834 4.3860812
3.5204201 -3.9236279 4.3848424
3.6214752 -3.925436 4.3775802
3.7198792 -3.9245377 4.3713212
3.1228371 2.7109528 2.6072252
3.0224075 2.715559 2.6007059
2.9069633 2.708786 2.6223798
6.7564354 -1.0754833 -1.9603854
3.7129326 3.5640793 0.75868952
-4.8562889 1.8775654 -1.463511
-0.67756462 1.8567333 2.526396
2.920105 1.8851204 3.2184315
-1.0756817 1.9966259 2.4048033
-5.4823418 3.0636578 4.3277035
2.3024597 3.581459 0.67002177
7.2001114 -0.20250893 0.1356318
3.2192116 1.7450504 3.2193432
3.3182945 1.7434406 3.1918781
4.9624252 2.707243 1.9338104
5.8401604 2.2101154 1.4057544
-2.7956772 5.8610687 0.96048498
0.59452438 3.0720444 1.2136415
3.091095 3.2622299 1.9684922
2.2945824 3.5906696 0.38009191
3.520771 3.5790558 0.97364372
-0.2245369 3.0231495 -0.25779811
0.61983109 3.2170811 0.053240508
-0.075386047 8.3531761 -1.5429504
-5.1763229 4.60709 3.7936742
6.325695 -4.1160202 2.277765
6.4260178 -4.1185226 2.2508099
6.5238609 -4.1158619 2.268945
6.6231461 -4.1133251 2.2924221
6.7229843 -4.1109467 2.3174698
6.8228493 -4.1094952 2.3322952
6.923111 -4.1081886 2.3459504
7.0239525 -4.1077404 2.3578146
7.1248055 -4.1082592 2.3575258
7.2276077 -4.1212387 2.3466156
-4.979784 4.3301868 4.017571
-0.050605774 -0.19753647 -3.6516588
-0.48088837 2.4383793 -1.9303385
-2.0650463 6.2682629 -0.01015613
0.62395477 -0.73511696 4.6533184
4.6490059 3.0708275 1.3891028
-5.6807709 5.5845242 2.2195125
6.5967865 0.60767937 -1.4591054
-5.0702686 7.7646618 -4.8329277
5.8220177 1.9162407 1.9692786
5.5712433 2.1395779 2.0179017
-3.4166737 4.7740116 -1.3426341
-4.6961784 6.5002518 -1.7660483
0.91903305 3.2933178 0.017875072
-3.929348 6.1031647 1.1312394
-4.907114 5.8848209 2.1092436
1.9032478 3.476305 1.2471293
-3.4628696 6.0548878 0.13705656
1.769722 3.3949165 1.4887657
5.3884239 1.8852634 -1.7529269
-0.9834671 3.2378712 0.4924759
1.0218735 3.3039322 -0.23458105
2.8107948 3.3415833 1.8665025
0.54715347 3.1153717 -0.55590165
-4.3807888 6.9703999 -2.5236835
-1.7774601 -3.9096527 2.9958484
-1.6795063 -3.9067135 3.0397146
-1.5782967 -3.9028893 3.0746689
-1.4779205 -3.9021263 3.0883529
-1.3775864 -3.9028854 3.0923226
-1.277071 -3.9025879 3.0898654
-1.1768456 -3.9031143 3.0748358
-1.0764198 -3.9056339 3.0506005
-0.97699547 -3.9074574 3.0226154
-0.87553596 -3.9125614 2.9757147
-0.7748661 -3.9171028 2.9259841
-0.67564774 -3.9199886 2.8859456
-0.57592201 -3.9235401 2.8476262
-0.47659492 -3.9265175 2.8077278
-0.37591362 -3.931366 2.7613263
-0.27679443 -3.9334621 2.7387199
-0.17825317 -3.9332886 2.7383893
-0.078174591 -3.9275436 2.7978172
0.19815445 2.7865582 1.5140393
4.166378 3.2372704 1.6405118
-5.5076981 5.8937664 1.4579653
-6.7515202 3.165844 1.2308226
-5.0960999 0.24079132 -1.9556757
1.5268707 3.3867798 -0.48108712
2.3660622 3.5714054 -0.16811329
3.0424461 3.6426792 0.084195442
3.9317818 3.5090714 0.41117856
4.6291962 3.2056332 0.66842932
1.0164146 -3.8002396 4.2163162
1.1208534 -3.7980442 4.2372818
1.2230568 -3.794733 4.2437758
1.3202858 -3.7949276 4.2747021
-0.95814133 8.0893049 -1.5546875
1.5195808 -3.7830544 4.4075074
1.6222229 -3.7767906 4.4389706
1.7187881 -3.7789764 4.4708905
1.8206291 -3.7709465 4.5256481
1.9202919 -3.7701836 4.5387106
2.0204659 -3.7686691 4.5346665
2.1203079 -3.77285 4.5173459
2.2209053 -3.7776031 4.4903846
2.3201904 -3.7757435 4.4800797
2.4185333 -3.7746525 4.5019112
2.5182838 -3.7722645 4.5247593
2.6191597 -3.7712936 4.549674
2.7200813 -3.7670822 4.561069
2.8200912 -3.7695408 4.5390935
2.9203415 -3.7733631 4.5046444
3.0213165 -3.7771358 4.4850063
3.1203041 -3.7766075 4.4686971
3.2205925 -3.7792244 4.4463515
3.3209496 -3.7806816 4.4357491
3.4213257 -3.7830868 4.4132838
3.5210991 -3.7838192 4.4001532
3.6224976 -3.7862625 4.3803596
3.7214661 -3.7867088 4.3642778
-0.47834778 2.0005474 2.4569774
0.82449341 2.6926937 2.2097754
0.92385864 2.6956291 2.2363138
1.0254288 2.695137 2.3104069
-4.1420879 6.7324905 -6.2776947
0.25944901 3.0635643 0.79872102
-0.77768898 1.8582802 2.5046086
-0.87700272 1.8556786 2.5011413
-0.37764549 1.9981346 2.4661932
3.223053 2.7107315 2.6191363
6.0716591 1.9484959 1.3502716
-0.75440979 8.0303173 -1.1913604
-3.7431335 6.3394184 -2.288358
-3.8071232 6.4142761 -2.3115792
0.72388458 2.5575562 2.3620577
-6.4833775 2.0023518 3.0309925
-3.6964321 6.0100403 -4.8427744
6.6880913 1.0371647 -0.65954649
-2.5095367 5.2551785 0.85943604
5.2632027 0.67944336 3.2337146
-1.06703 3.2542248 -0.57035929
0.92357635 2.5629635 2.4393952
-3.4794846 5.584116 2.6727345
6.7569923 1.0432243 0.038893342
-6.5667572 3.0276527 2.1314003
-5.180954 3.2092915 4.436296
6.428299 -3.9783039 2.2509346
6.5270233 -3.9777641 2.244945
6.623909 -3.9743328 2.2692006
6.723278 -3.9718647 2.2930877
6.8234329 -3.9703655 2.3149738
6.9228401 -3.9691906 2.3206372
7.0234413 -3.968502 2.3329716
7.1240997 -3.9678211 2.3441856
