# .PCD v0.7 - Point Cloud Data file format
VERSION 0.7
FIELDS x y z
SIZE 4 4 4
TYPE F F F
COUNT 1 1 1
WIDTH 819
HEIGHT 1
VIEWPOINT 0 0 0 1 0 0 0
POINTS 819
DATA ascii
32.745049 3.931519 -7.0362663
32.49453 4.2383609 -7.0454202
32.826687 2.7995734 -6.2867441
33.17593 2.7007504 -6.2404194
31.573051 3.8214304 -6.2261558
32.600513 3.5858624 -6.5665879
33.115299 3.3563821 -6.469099
31.624949 4.3556137 -6.4914365
32.372334 4.3155947 -6.5993013
32.97216 1.9780884 -5.1944284
33.151409 1.8867537 -5.193109
32.673664 2.5915337 -5.4882603
33.308205 2.4800167 -5.4915075
31.432873 3.5558312 -5.4724689
32.467476 3.6136127 -5.5084033
33.1558 3.3198445 -5.503983
31.61347 4.1136122 -5.7769532
32.246746 4.0972776 -5.7980642
42.848358 -5.3381777 -4.0076361
43.329685 -3.0376084 -4.0190611
41.632324 -2.1952288 -4.2187672
42.542732 -2.4511034 -4.2980747
43.501438 -2.4810958 -4.2284899
44.236839 -2.2500627 -4.0840664
40.691334 -1.3982877 -4.307591
41.484688 -1.5186436 -4.6307912
42.494026 -1.5080023 -4.6662211
43.485416 -1.5057917 -4.4096394
44.321465 -1.4654361 -4.1602674
40.570713 -0.51160306 -4.4355984
41.504677 -0.49906775 -4.7783737
42.483822 -0.49998739 -4.6784863
43.475098 -0.49821913 -4.4094715
44.352886 -0.49170616 -4.161315
40.73605 0.3376238 -4.2637782
41.487389 0.50327522 -4.5244493
42.459614 0.50940037 -4.5674591
43.499187 0.51371795 -4.3372655
44.351353 0.37330914 -4.1104283
32.912933 1.8213047 -4.4448934
33.297104 1.7753183 -4.4967594
41.694187 1.209995 -4.1896811
42.512932 1.3986014 -4.2159934
43.374802 1.332146 -4.1239519
44.121891 1.044898 -4.0216513
31.60416 2.8095431 -4.4925208
32.515129 2.4429593 -4.5641842
33.553013 2.5205984 -4.5075388
31.631205 3.4407773 -4.570416
32.502087 3.652473 -4.4734898
33.251053 3.2789826 -4.5132623
42.105381 -6.0219431 -3.1218359
41.893425 -5.4971557 -3.128511
42.459568 -5.5383897 -3.5500669
43.2766 -5.2159553 -3.4948931
41.916607 -4.7708402 -3.119343
42.497227 -4.5092726 -3.6103139
43.54179 -4.5480356 -3.6921532
44.365887 -4.3151574 -3.3809562
41.928207 -3.0681572 -3.2023661
42.496788 -3.4404509 -3.4557812
43.482719 -3.5191994 -3.7642617
44.496841 -3.5202241 -3.5310895
45.388474 -3.4097521 -3.2935941
37.853111 -2.211544 -3.047451
38.470707 -2.3799119 -3.0520163
39.061253 -2.1139557 -3.028671
40.790253 -2.1473629 -3.3790317
41.468109 -2.5772529 -3.505465
42.291019 -2.9260349 -3.8430777
43.932499 -2.8981812 -3.950201
44.598888 -2.569524 -3.8438962
45.527431 -2.5035748 -3.4180551
46.365883 -2.4074724 -3.1811588
37.742882 -1.5029697 -3.0737109
38.483387 -1.4955363 -3.0939791
39.457275 -1.4276114 -3.149766
40.34169 -1.5904255 -3.5580218
44.794262 -1.5962579 -3.9523759
45.482719 -1.5043651 -3.7448144
46.399216 -1.5074227 -3.2609751
37.817219 -0.80674696 -3.0448589
38.551144 -0.58458769 -3.0811474
39.535706 -0.47778171 -3.2811434
40.109463 -0.51073396 -3.7326734
44.818314 -0.52281827 -3.9649992
45.458561 -0.49669796 -3.7879806
46.359097 -0.49148378 -3.3836229
38.902641 0.21563847 -3.0439084
39.527271 0.50316614 -3.206826
40.432255 0.57351887 -3.5581632
41.03059 0.94681591 -3.955071
44.716705 0.6190362 -3.9029267
45.526283 0.50303328 -3.6052563
46.209133 0.35836592 -3.2272508
32.798225 1.7590152 -3.495703
33.419235 1.670572 -3.5136714
39.717396 1.2726364 -3.0953906
40.543518 1.468352 -3.2155862
41.465355 1.5637988 -3.5368094
42.38121 1.8717468 -3.764231
43.6567 1.7170243 -3.9157252
44.54081 1.5372094 -3.6717589
45.466217 1.4799309 -3.3055568
46.029076 1.0876172 -3.070806
31.803226 2.6136043 -3.5309803
32.444324 2.2174039 -3.5869801
33.729584 2.5199871 -3.5022507
40.747471 2.262825 -3.0989387
41.521553 2.3192849 -3.1126823
42.554436 2.3758311 -3.2542396
43.486118 2.4880736 -3.3831451
44.470226 2.461215 -3.2604294
45.135704 2.2178202 -3.1133299
31.839209 3.2260458 -3.623493
32.497799 3.4232376 -3.499707
33.277195 3.2109108 -3.5138648
42.897842 3.0889385 -3.0194042
43.465645 3.1319633 -3.0756438
44.052574 3.0029631 -3.027431
35.792442 6.7947907 -3.0933177
36.526306 6.7601833 -3.195224
37.108692 6.8283057 -3.1362634
35.684254 7.5938325 -3.2964261
36.446011 7.5057292 -3.529577
37.043827 7.0801048 -3.3150988
35.651367 8.0263033 -3.3329186
41.565632 -6.2441669 -2.1793985
42.119343 -6.0676889 -2.5007036
41.658295 -5.5841174 -2.4083581
42.601345 -5.5686312 -2.5062976
43.165112 -5.1731653 -2.9021344
36.885101 -4.0208139 -2.056191
37.529819 -4.1578097 -2.1950121
38.465008 -4.1514573 -2.2204387
39.073185 -4.0715075 -2.0776911
40.587856 -4.1343527 -2.0586321
41.669804 -4.556869 -2.3252599
42.450516 -4.501049 -2.4594018
43.540642 -4.5478144 -2.5414948
44.34235 -4.2237082 -2.7583408
35.90456 -3.1033273 -2.0498509
36.553074 -3.4432909 -2.308394
37.486061 -3.5124347 -2.6185911
38.498798 -3.489779 -2.6869488
39.510857 -3.469094 -2.3804109
40.515888 -3.4986651 -2.2746692
41.552124 -3.3403239 -2.3210208
42.184937 -3.6818683 -2.5903718
44.613728 -3.7384953 -2.4020574
45.441666 -3.3772473 -2.5424509
46.119766 -3.0970335 -2.7365081
35.846832 -2.4843409 -2.1322789
36.496796 -2.4809949 -2.4776251
37.448788 -2.5692668 -2.8100781
38.609077 -2.8208139 -2.9417737
39.515968 -2.5040781 -2.7984769
40.469666 -2.5218585 -2.6756687
41.275204 -2.7985818 -2.6875913
45.745388 -2.8779862 -2.1831172
46.553509 -2.6701097 -2.4630001
47.086018 -2.1969109 -2.2924633
35.822811 -1.491592 -2.1185372
36.501102 -1.5001101 -2.5483515
37.256542 -1.5174286 -2.8624041
39.719215 -1.8902998 -2.9484346
40.198967 -1.9112743 -2.892751
46.895149 -1.4560134 -2.7682223
47.057892 -1.5713794 -2.2971299
35.881756 -0.65583545 -2.1039083
36.493721 -0.47021002 -2.4749033
37.425892 -0.46847782 -2.8307877
38.282925 -0.15812375 -2.9698982
46.853603 -0.3889429 -2.8945365
47.157631 -0.43745872 -2.3867366
36.630096 0.43890271 -2.245379
37.518562 0.49550298 -2.5420678
38.454018 0.53349209 -2.8304563
39.055725 0.89103681 -2.9297709
46.666733 0.5519954 -2.7135317
47.109615 0.43819654 -2.2213397
32.657425 1.7290562 -2.5013809
33.548149 1.4966856 -2.5169306
34.061874 1.8288378 -2.197407
36.901009 1.0782554 -2.0607662
37.543797 1.2318338 -2.1578884
38.527908 1.4392644 -2.389462
39.371372 1.6143895 -2.7443414
40.138557 1.828638 -2.9345872
45.860836 1.8091871 -2.9088213
46.47858 1.4955096 -2.4836035
47.061199 1.1490911 -2.0713177
31.959093 2.6046023 -2.89031
32.25951 2.474287 -2.4296234
33.649281 2.5914187 -2.4848223
34.021965 2.0875041 -2.239651
38.889656 2.0983689 -2.1271043
39.59687 2.4132936 -2.3812156
40.408024 2.593976 -2.7124057
41.476597 2.7926674 -2.9293277
42.368477 2.8641796 -2.9522414
44.814518 2.8581386 -2.9440451
45.567139 2.5334675 -2.7474797
46.183224 2.4036756 -2.2295306
32.571873 3.1412201 -2.676749
33.206936 3.0949788 -2.7795134
39.885021 3.1406505 -2.091531
40.571011 3.3993993 -2.3007672
41.487858 3.5251715 -2.6862972
42.484886 3.5069754 -2.7199256
43.491447 3.6104088 -2.6921899
44.498482 3.4974122 -2.5821674
45.413792 3.3235774 -2.3424847
46.035042 3.0396366 -2.121161
34.855915 4.7860174 -2.0821626
35.501923 4.7276468 -2.1535847
36.134159 4.958004 -2.074266
40.917114 4.0210047 -2.0752709
41.566521 4.2308998 -2.2229378
42.508053 4.3013129 -2.254848
43.502048 4.2590327 -2.2011776
44.351959 4.1654639 -2.1463838
34.773319 5.5207353 -2.2041023
35.489105 5.4898853 -2.4733021
36.401249 5.5916772 -2.3267066
37.038277 5.9609203 -2.1393061
34.844059 6.496243 -2.2786238
35.540043 6.5038767 -2.5316126
36.515209 6.4599633 -2.5327399
37.129139 6.4808702 -2.5196781
34.950012 7.185575 -2.2369094
35.392403 7.4916849 -2.59479
36.400375 7.1652956 -2.8563702
37.023949 7.0388069 -2.968971
35.450298 8.0281963 -2.9790609
39.924072 -7.1677742 -1.148087
40.461388 -7.2190804 -1.414149
39.915291 -6.6917787 -1.1739804
40.504215 -6.5130262 -1.6152688
41.465206 -6.5238471 -1.5314821
42.101067 -6.0867109 -1.5286558
39.992546 -5.0006199 -1.034701
40.536488 -5.4800072 -1.4784982
41.208019 -5.3992443 -1.9209087
42.484852 -5.4831514 -1.5451854
35.861237 -4.1394668 -1.178146
36.564518 -4.3659115 -1.4533596
37.41758 -4.6012487 -1.5548331
38.515144 -4.6726222 -1.4579612
39.56094 -4.502748 -1.4641209
40.431721 -4.6416121 -1.7499839
41.406105 -4.4609356 -1.9584814
42.833256 -4.8600283 -1.5456311
43.488174 -4.4853072 -1.4879183
44.058578 -4.0511932 -1.4486098
35.548313 -3.4550233 -1.4255923
36.194546 -3.7733479 -1.8022035
39.612541 -3.961241 -1.9476635
41.685093 -3.7844269 -1.9545629
42.064201 -3.8392639 -1.970971
44.577526 -3.6458409 -1.5144609
45.213726 -3.1561112 -1.4975718
34.899269 -2.3785994 -1.1769788
35.342331 -2.538172 -1.6403805
45.697559 -2.8307912 -1.5510138
46.548916 -2.6751196 -1.5135385
47.187389 -2.2146623 -1.4557676
33.726692 -1.2551641 -1.1758468
34.567692 -1.4412224 -1.3087085
35.31982 -1.5228217 -1.7472436
47.382122 -1.5011904 -1.4772991
48.045113 -1.1759295 -1.008381
33.542976 -0.48083222 -1.3138652
34.492031 -0.50900918 -1.6781563
35.42601 -0.47555411 -1.8129448
47.552452 -0.50902277 -1.5955907
48.254791 -0.45241663 -1.2322422
32.889198 0.74027616 -1.148404
33.49593 0.48333332 -1.4651518
34.518871 0.48482037 -1.7448248
35.529572 0.48473793 -1.6975687
36.221336 0.67944407 -1.7964388
47.568214 0.533903 -1.6201768
48.4422 0.53958619 -1.3843205
32.643154 1.5832561 -1.5326545
33.49202 1.1993777 -1.7590241
34.473728 1.5512321 -1.5737648
35.440784 1.4527568 -1.3287643
36.554657 1.3756238 -1.4555973
37.469387 1.7327752 -1.5610363
38.192425 1.8220421 -1.7943009
46.903236 1.8566564 -1.8742831
47.426884 1.4901046 -1.4069084
48.43877 1.4908333 -1.2793466
32.594627 2.452028 -1.5448213
33.52644 2.4996483 -1.5139755
34.480293 2.4071162 -1.1818566
35.142593 2.5570807 -1.071429
37.808811 2.0292313 -1.1366973
38.581871 2.3685915 -1.4713001
39.240067 2.7419312 -1.7461326
46.623276 2.5413909 -1.5583057
47.153618 2.1319265 -1.2138109
48.285183 2.0797627 -1.0592965
33.972813 3.8683391 -1.084761
34.48167 3.5145848 -1.3537425
35.451962 3.5776927 -1.3843677
38.937885 3.0145197 -1.0142111
39.571331 3.4689331 -1.4721751
40.259232 3.7868693 -1.8054744
44.950089 3.9722209 -1.974241
45.637592 3.7484038 -1.6443677
46.216743 3.3114665 -1.426334
33.977108 4.2273231 -1.0888109
34.381062 4.4988275 -1.6003588
35.598892 4.3086228 -1.7393533
36.247097 4.6306214 -1.4296995
39.942329 4.092555 -1.145246
40.568996 4.3462944 -1.4166795
41.462833 4.6943908 -1.5544373
42.48035 4.7954316 -1.6823062
43.540359 4.7661877 -1.6297317
44.517971 4.5208211 -1.5248536
45.269814 4.195539 -1.3548759
34.433453 5.5408316 -1.4667755
35.452675 5.529675 -1.4172218
36.550789 5.5124173 -1.5404798
37.038868 5.9149356 -1.9133883
41.748707 5.0428987 -1.081131
42.5294 5.086 -1.1684406
43.361057 5.0624781 -1.1657662
34.758965 6.4204936 -1.5514408
35.250477 6.4115963 -1.7192377
36.648563 6.1094203 -1.8997159
37.05114 6.1577797 -1.931581
34.929546 7.0880966 -1.881411
35.114983 7.1810484 -1.9252484
39.782692 -7.3367677 -0.52229857
40.432461 -7.2974253 -0.49530882
39.747757 -6.5449772 -0.47662309
40.840702 -6.8820295 -0.51546007
41.517845 -6.5112319 -0.48572677
42.108746 -6.0704145 -0.55223876
36.996143 -5.0494599 -0.040791001
37.59219 -5.092845 -0.31507167
38.476162 -5.1112127 -0.44202855
39.773983 -5.2519093 -0.47405374
40.138134 -5.4588804 -0.46287817
41.940277 -5.9394789 -0.082630999
42.510437 -5.741148 -0.39197311
43.052063 -5.3746548 -0.106471
35.641678 -4.2718787 -0.43567467
36.454132 -4.7322154 -0.50126696
37.375294 -4.9233608 -0.75274831
38.69923 -4.9667892 -0.87199765
39.530342 -4.8644838 -0.53624165
40.034054 -4.9718237 -0.076976001
42.921688 -4.9158273 -0.88567597
43.539394 -4.4711137 -0.51363015
44.085258 -4.0608869 -0.46378294
34.852467 -3.2684534 -0.35303247
35.235245 -3.6669469 -0.60094178
44.565971 -3.693485 -0.50123781
45.457905 -3.1971064 -0.47367409
46.123997 -3.0828292 -0.52469963
33.726536 -2.1106176 -0.20756386
34.57909 -2.4928069 -0.51309752
45.693954 -2.9482985 -0.94791102
46.604988 -2.6857059 -0.65011936
47.292297 -2.1625636 -0.50435019
32.883419 -1.1748471 -0.16811919
33.389046 -1.537349 -0.54911041
34.300198 -1.8684357 -0.8432948
47.746975 -1.7761904 -0.52085388
48.209717 -1.2708088 -0.50056583
32.726521 -0.46280485 -0.42790192
33.084587 -0.65700752 -0.84789991
48.671593 -0.53348207 -0.52729726
49.003105 -0.1173954 -0.070201002
31.973577 0.89711589 -0.10611433
32.523396 0.51067108 -0.53061312
33.00209 0.052193642 -0.97163099
48.905788 0.3832036 -0.86827409
49.14716 0.56400067 -0.43227074
31.951176 1.1356865 -0.087161005
32.349751 1.500936 -0.5466336
35.782898 1.8695053 -0.70180947
36.501846 1.7594318 -0.50916415
37.129269 1.9467191 -0.63027644
47.473026 1.851398 -0.91320443
48.909477 1.6726638 -0.89005792
49.197941 1.4819657 -0.4370546
32.770763 2.2284973 -0.47065318
33.46172 2.5930665 -0.54806781
34.253105 2.6519513 -0.96037406
35.406681 2.4442565 -0.52280188
37.609489 2.1293037 -0.45731995
38.390789 2.5926921 -0.5379917
46.881443 2.8179877 -0.63786626
47.48328 2.4796729 -0.50781584
48.498199 2.5454478 -0.52127618
49.089077 2.170604 -0.23669767
33.859146 3.4825723 -0.56279707
34.425774 3.7816093 -0.18803386
35.478352 3.5162799 -0.43062642
38.843296 3.1609943 -0.40393102
39.303642 3.66329 -0.54344708
45.935181 3.9380586 -0.85935098
46.397682 3.4802635 -0.50335771
48.188892 3.0121665 -0.020311
33.954826 4.1606731 -0.80810231
34.494217 4.5042615 -0.49259421
35.513855 4.4805784 -0.64472443
36.097172 4.6456614 -0.88416821
39.793907 4.1945696 -0.46874538
40.448212 4.7107043 -0.51796097
41.11034 4.956152 -0.92084098
43.992706 4.9862328 -0.93552101
44.616863 4.8334117 -0.57610482
45.498024 4.3542404 -0.51673806
34.667408 5.3367362 -0.80937707
35.272648 5.0979156 -0.88604105
36.224979 5.1384301 -0.91483957
40.895695 5.0315785 -0.26928601
41.506111 5.1685677 -0.4989396
42.475956 5.2773218 -0.51166886
43.484928 5.2088094 -0.51491511
44.15284 5.0579333 -0.32316726
39.89156 -7.261682 0.101567
40.409443 -7.1800327 0.4303095
39.894199 -6.6609879 0.14919606
40.406635 -6.5728765 0.60938346
41.285477 -6.6705747 0.45877206
36.978008 -5.055758 0.35958904
37.484497 -5.1156397 0.52524501
38.503433 -5.1940384 0.52037531
39.14455 -5.058887 0.49929103
40.566689 -5.4492059 0.48761177
42.724918 -5.4784241 0.34360737
43.165035 -5.2821217 0.53108221
35.590042 -4.330493 0.50244898
36.459995 -4.8198147 0.54379183
39.581516 -4.892714 0.49559981
40.386314 -4.8042727 0.52385825
43.661953 -4.4141088 0.51035523
44.093254 -4.0723753 0.48327053
34.752216 -3.398731 0.51407909
35.086567 -3.8957758 0.44922236
44.614147 -3.6771715 0.51051199
45.519196 -3.2613795 0.52355409
46.129719 -3.1028886 0.51882142
33.582985 -2.2234643 0.54805231
34.411819 -2.5887067 0.48400959
46.377979 -2.865072 0.88283563
32.791119 -1.4185303 0.51622766
33.117313 -1.856567 0.34736815
47.693707 -1.8430713 0.4742955
48.26178 -1.3444841 0.48817196
31.987137 -0.042272449 0.87240899
32.450001 -0.49512959 0.49527219
48.755379 -0.56531256 0.54422218
49.0312 -0.08633028 0.30206615
31.758749 0.55928034 0.54583782
32.204277 0.2108717 0.24207352
49.241947 0.52043289 0.50539416
31.849049 1.2246122 0.50423741
32.215889 1.7463204 0.50222456
36.498169 1.8353696 0.4960275
37.141476 1.9135585 0.63805127
49.338005 1.5749451 0.47346056
32.718735 2.2370937 0.51578832
33.409348 2.7227995 0.50769842
34.864574 2.8341575 0.70614505
35.491058 2.3414137 0.4795588
37.603138 2.1522806 0.47398818
38.330002 2.6078978 0.51163071
46.914944 2.9189076 0.50676829
47.436008 2.7601511 0.49712256
48.709961 2.796447 0.50408703
49.121914 2.2905052 0.45066187
33.912239 3.0671668 0.45812699
34.475178 3.2685058 0.382056
35.099197 3.1809721 0.08531525
38.820408 3.2277036 0.48276827
39.239407 3.7260702 0.50889623
45.99321 3.9288211 0.87152398
46.430992 3.4899321 0.45090038
47.931145 3.024128 0.47970399
48.240078 3.0489335 0.48175031
39.746067 4.2384624 0.50070256
40.367805 4.7563744 0.50857031
44.685078 4.8632202 0.49365208
45.522961 4.3607492 0.47137028
40.869099 5.0545378 0.50807142
41.500156 5.2371931 0.50458592
42.494148 5.3628516 0.5070048
43.492622 5.2588654 0.49657655
44.195656 5.0607986 0.44999826
40.528248 -7.0775647 1.719582
40.534264 -6.602706 1.4867812
41.390137 -6.5638356 1.5817846
42.09132 -6.0687947 1.8867091
37.62619 -5.0415802 1.1316338
38.436649 -5.0738721 1.1979151
40.612209 -5.4272761 1.5215585
42.687366 -5.5713644 1.630381
43.118717 -5.2274828 1.4394073
35.665771 -4.2105546 1.427014
36.483913 -4.6325169 1.5080165
37.474659 -4.8868618 1.609286
38.536728 -4.8521094 1.677896
39.457783 -4.6683331 1.4915049
40.321388 -4.7263765 1.5183202
43.561905 -4.4796057 1.5179437
44.093979 -4.0565357 1.4551849
34.839226 -3.329716 1.3359784
35.230785 -3.692627 1.6421822
44.586884 -3.6823778 1.5177462
45.398693 -3.1604981 1.4050461
46.074944 -3.0609267 1.178763
33.596863 -2.1379845 1.4337543
34.537781 -2.4412718 1.543015
35.014221 -2.874815 1.968224
45.747272 -2.8610754 1.6604568
46.479729 -2.6982658 1.582619
47.242306 -2.1910729 1.5080394
32.764259 -1.4456133 1.4426005
33.151604 -1.874361 1.6531022
47.732586 -1.5908899 1.5346814
48.1469 -1.209003 1.3054928
31.992411 -0.037265778 1.022469
32.428009 -0.45599639 1.47376
47.942066 -0.80747509 1.9282225
48.496483 -0.52480352 1.5156169
31.784271 0.49815947 1.464365
32.065029 0.047945872 1.6886758
36.81847 0.91413403 1.9227448
48.823303 0.42886055 1.7413906
49.130459 0.62964696 1.3017175
31.886652 1.2080487 1.4796282
32.260181 1.7177289 1.5497521
35.68396 1.8798065 1.625316
36.5061 1.5044936 1.5041896
37.449409 1.6446397 1.5531026
38.18589 1.8591856 1.7735497
47.422539 1.7612971 1.8788639
48.835388 1.5711625 1.8061172
49.190159 1.499103 1.3080186
32.75721 2.236697 1.4664048
33.490646 2.7330878 1.5164055
34.67149 2.7009797 1.5691668
35.277168 2.1726396 1.4120203
37.80825 2.077528 1.1286299
38.547749 2.438448 1.4939702
39.03968 2.9145045 1.838589
46.796455 2.701848 1.6088289
47.501091 2.4144201 1.4596468
48.483936 2.4897037 1.486428
49.083832 2.1436298 1.1430171
33.956646 3.0256469 1.192559
34.246647 3.0485647 1.3585671
38.896782 3.1579409 1.2391299
39.358604 3.6006594 1.5488315
45.826183 3.8151319 1.6714106
46.368233 3.3612084 1.4308581
39.81477 4.1589851 1.3984871
40.482845 4.6185236 1.5258908
41.283081 4.9261866 1.8003305
43.837246 4.9316735 1.8748807
44.543446 4.752748 1.5419542
45.385555 4.2674642 1.4418201
40.930187 5.0281715 1.1185623
41.560223 5.123549 1.4088302
42.494995 5.2309952 1.5124356
43.452663 5.1666617 1.4647846
44.094063 5.0393386 1.2425591
40.406956 -7.10602 2.5264151
39.992313 -6.3534217 2.5079722
40.282295 -6.6079073 2.5216937
41.492359 -6.4254365 2.4990807
42.026825 -6.034481 2.386065
40.457123 -5.4292717 2.5672379
42.536175 -5.6563888 2.4868352
43.033585 -5.3117118 2.8833389
35.940937 -4.065783 2.0842354
36.573219 -4.2805462 2.3480768
37.532314 -4.4241414 2.5101638
38.493698 -4.4061007 2.4934039
39.437046 -4.2370181 2.3473341
40.502548 -4.4897761 2.5549672
41.331516 -4.4967179 2.9643247
42.234589 -4.2740364 2.8128691
43.51952 -4.4358091 2.4667614
44.04615 -4.0373573 2.313565
35.648849 -3.4210327 2.3214242
36.333694 -3.6468868 2.7789958
37.236954 -3.9520097 2.9573672
38.687805 -3.9442062 2.9557645
39.573212 -3.7480347 2.8176162
40.245583 -3.8252597 2.8410294
41.747826 -3.4685311 2.9031146
42.21442 -3.4496689 2.8388994
44.522381 -3.6590655 2.5088515
45.249168 -3.162991 2.4641569
46.099682 -3.0228827 2.834379
33.632668 -2.1566231 2.5317199
34.520275 -2.1284578 2.4520905
35.485958 -2.4931893 2.5560868
36.033012 -2.8492477 2.9597092
41.668568 -2.7014985 2.9196992
42.104469 -2.9059708 2.9178638
45.66687 -2.7943101 2.304323
46.554195 -2.585151 2.4730597
47.167423 -2.2117124 2.4484513
32.861607 -1.3019516 2.4529955
33.150246 -1.8090179 2.4838841
34.925655 -1.9828876 2.7424309
35.586224 -1.652652 2.844141
36.119076 -1.3027712 2.9433446
47.422646 -1.4587934 2.5180054
32.534744 -0.46707222 2.4875703
35.971539 -0.71466744 2.9304991
36.468266 -0.44510219 2.7987294
37.23484 -0.21985197 2.9062052
46.947613 -0.39473495 2.9691808
47.466015 -0.4842377 2.4840214
48.216358 -0.22627328 2.1263626
31.963789 0.68075043 2.0861802
32.205841 0.45451578 2.5567265
34.981339 0.96227741 2.9934089
35.72142 0.90477282 2.8904281
36.533852 0.5133574 2.5242312
37.497932 0.51154494 2.5477083
38.395752 0.60271668 2.8199999
46.956264 0.8572669 2.9493289
47.436817 0.51158661 2.489419
48.340431 0.51353002 2.2516086
32.508759 1.4947127 2.507077
33.227768 1.8972383 2.8796854
34.618721 1.5921005 2.6695685
35.473656 1.4340245 2.4594011
36.256523 1.2228754 2.2623799
37.703403 1.2707757 2.1539338
38.536266 1.4707503 2.4143295
39.186428 1.6086209 2.8384147
46.726337 1.6276097 2.7217085
47.413094 1.3679314 2.2458606
48.333366 1.4910897 2.148855
32.849041 2.0988832 2.1859713
33.559677 2.3886316 2.4985638
34.384373 2.4241846 2.3808479
35.0298 2.0470328 2.0353589
38.84454 2.2375956 2.2199931
39.456474 2.544842 2.6377506
40.078941 2.9128494 2.9247289
45.815849 2.7838104 2.8388457
46.428711 2.4407308 2.4449556
48.211048 2.045393 2.001359
39.678955 3.3792951 2.3071754
40.388966 3.5950639 2.672688
41.476791 3.8279698 2.8807712
42.368336 3.8576744 2.9569492
43.781975 3.9274001 2.969419
44.596077 3.8486812 2.8166578
45.502014 3.5193167 2.5083835
46.127029 3.1587653 2.1875119
40.629753 4.243052 2.2540622
41.531818 4.4708304 2.4445879
42.497036 4.5569963 2.5204322
43.493103 4.5174403 2.5193079
44.438602 4.309165 2.3589654
45.14621 4.0853591 2.1529851
42.515129 5.0388908 2.043009
40.521427 -7.0429292 3.1453061
40.548027 -6.5356545 3.4376848
41.4254 -6.3532848 3.4831512
42.03915 -6.0131779 3.0472591
40.623646 -5.666811 3.3594272
41.504261 -5.5133867 3.4895186
42.48975 -5.4447207 3.4523442
43.186356 -5.1556039 3.5368505
40.861755 -4.1128931 3.0402215
41.528843 -4.5133328 3.0887284
42.325886 -4.4979253 3.5274982
43.693798 -4.7242308 3.6270118
44.395908 -4.2764392 3.7023253
36.666897 -3.3005354 3.1585538
37.515121 -3.4842017 3.2970028
38.4776 -3.5111294 3.2665632
39.470753 -3.2865407 3.1707392
40.538704 -3.4265964 3.1729727
41.255325 -3.5305545 3.12082
42.59869 -3.5031097 3.4174433
43.369179 -3.1863048 3.8259277
44.696812 -3.5330222 3.7537873
45.431103 -3.3987675 3.6197073
46.085335 -3.0593896 3.2571476
33.673233 -2.1139376 3.2857873
34.304314 -2.1126785 3.2884169
36.494904 -2.5061517 3.251389
37.500786 -2.498841 3.5794888
38.497498 -2.4945693 3.5777063
39.477627 -2.4971786 3.4007051
40.500584 -2.4836133 3.2862575
41.532143 -2.3594997 3.2057796
42.41349 -2.5767565 3.5809896
43.43021 -2.9348021 3.9366634
44.622192 -2.8203216 3.8637669
45.529331 -2.5610445 3.7369118
46.47398 -2.4912708 3.4531991
47.079674 -2.1931939 3.1411445
32.922787 -1.2642204 3.2198553
33.410393 -1.5907445 3.624927
34.553288 -1.7372277 3.6929584
35.376923 -1.4400953 3.4591444
36.584522 -1.5408641 3.2122073
37.503696 -1.4938043 3.443212
38.490067 -1.4986364 3.5068679
39.507961 -1.4892774 3.4215932
40.5504 -1.4756196 3.4303269
41.37793 -1.7436687 3.6422968
42.092587 -1.998109 3.9799089
45.845577 -1.5261325 3.8412757
46.512302 -1.4717245 3.4464359
47.139236 -1.546506 3.1596344
32.755764 -0.46698374 3.3771186
33.110271 -0.65180862 3.8545506
35.720665 -0.44804877 3.5206974
36.718136 -0.68363726 3.0789781
37.579475 -0.56412309 3.1684182
38.480789 -0.50058627 3.2830429
39.491493 -0.50698882 3.5019066
40.271511 -0.53962153 3.7183599
45.833813 -0.4128868 3.9570076
46.467472 -0.49388212 3.4465547
47.036652 -0.92971468 3.002059
32.68998 0.45821849 3.3961959
33.365658 0.70183235 3.8568237
34.57217 0.68668514 3.6175187
35.470425 0.42214617 3.3469403
36.085907 0.26942366 3.0237629
37.826759 0.060376287 3.0255389
38.695759 0.29187188 3.0798354
39.498779 0.48858151 3.368911
40.318314 0.55183297 3.6461463
45.716949 0.54663622 3.7645082
46.486645 0.49233818 3.330476
32.797195 1.2324746 3.1829829
33.531181 1.4867604 3.3832967
34.260021 1.2925051 3.2623718
39.647308 1.4463195 3.1873081
40.510014 1.4816486 3.4578571
41.37775 1.7451261 3.6774006
44.904945 1.9615903 3.9680638
45.559246 1.5246836 3.6227596
46.311386 1.3950247 3.1447229
39.892796 2.2097158 3.0767133
40.493462 2.4834421 3.2648556
41.525005 2.4670432 3.4494562
42.450813 2.5805163 3.730679
43.552547 2.6632984 3.8703203
44.527008 2.5654693 3.7771287
45.457817 2.4345341 3.3542635
46.084408 2.1448379 3.0360615
40.713287 3.2034099 3.0939531
41.559917 3.3265369 3.166337
42.558372 3.4145553 3.2549248
43.491333 3.4668217 3.4104042
44.466961 3.3839452 3.3051906
45.214813 3.1866417 3.150677
42.881542 -5.0996923 4.0674219
43.165237 -5.055078 4.1648302
42.803513 -4.5082092 4.1777158
43.485329 -4.5334778 4.3990169
44.242523 -4.250298 4.2201018
42.908466 -3.7834468 4.1008258
43.553875 -3.6427901 4.2883534
44.427311 -3.5752614 4.1326761
45.006069 -3.5930052 4.0206189
42.724258 -2.2470267 4.1951442
43.470074 -2.4258103 4.2594032
44.416542 -2.3224351 4.2678533
45.137859 -2.1170981 4.1383891
33.808704 -1.1792043 4.0335526
34.542648 -1.2308609 4.1504011
35.203876 -1.1781458 4.1302519
40.87521 -1.1258917 4.1871905
41.570534 -1.3578821 4.3636384
42.493374 -1.5373758 4.4911761
43.477249 -1.5063624 4.6543193
44.512337 -1.5013136 4.5329752
45.390839 -1.4453658 4.2481599
33.559685 -0.46507972 4.2539296
34.514339 -0.50730699 4.3784294
35.288292 -0.52886951 4.23879
40.69976 -0.47438437 4.3655686
41.488071 -0.51111513 4.7781224
42.492561 -0.49454853 4.8515358
43.504417 -0.49195322 4.8141413
44.539223 -0.48213181 4.6178107
45.344967 -0.5453853 4.2144279
33.620075 0.32351387 4.160398
34.39212 0.23203239 4.1701698
35.087055 0.10504967 4.061121
40.759953 0.4377265 4.331471
41.513699 0.50358272 4.7311296
42.480537 0.50289237 4.8331852
43.50679 0.52284998 4.7547073
44.513874 0.50562757 4.5058198
45.239822 0.43351394 4.1436305
40.948174 1.0711635 4.0658941
41.594509 1.4106334 4.3505554
42.466862 1.5361278 4.5486403
43.504536 1.5054867 4.5408077
44.508415 1.5136217 4.2643452
45.120541 1.3078916 4.0718651
42.61166 2.1303546 4.141046
43.439781 2.2105362 4.1825233
44.310551 2.1068964 4.0336175
