# .PCD v0.7 - Point Cloud Data file format
VERSION 0.7
FIELDS x y z
SIZE 4 4 4
TYPE F F F
COUNT 1 1 1
WIDTH 1547
HEIGHT 1
VIEWPOINT 0 0 0 1 0 0 0
POINTS 1547
DATA ascii
-127.84909 -14.2276 -15.215927
-129.5834 -15.18573 -15.500214
-131.71494 -15.31073 -16.174454
-133.44916 -16.268921 -16.458679
-135.18332 -17.227051 -16.742889
-136.91736 -18.185242 -17.027054
-138.65137 -19.143433 -17.311203
-141.64938 -19.747742 -18.127304
-143.38321 -20.705994 -18.411346
-145.11703 -21.664307 -18.695389
-154.57928 -24.7901 -20.895004
-156.31284 -25.748596 -21.178894
-158.44318 -25.874084 -21.852631
-160.17664 -26.832581 -22.13649
-161.91013 -27.791199 -22.420303
-163.64362 -28.749939 -22.704117
-173.104 -31.877747 -24.902512
-174.83743 -32.83667 -25.186218
-176.5708 -33.795715 -25.469894
-178.3042 -34.7547 -25.753586
-180.03769 -35.713806 -26.037247
-182.63782 -37.152649 -26.462692
-193.75784 -39.09668 -29.581528
-195.49149 -40.056213 -29.865097
-197.2251 -41.01593 -30.148666
-207.55347 -44.628845 -32.487579
-209.28738 -45.58905 -32.771072
-211.4176 -45.715881 -33.444321
-213.1517 -46.676208 -33.727844
-214.88589 -47.636597 -34.011337
-217.01624 -47.763733 -34.684601
-218.75052 -48.724243 -34.968094
-220.48495 -49.684875 -35.251602
-222.61551 -49.812195 -35.924835
-224.35013 -50.77301 -36.208374
-227.34818 -51.381042 -37.023346
-229.08292 -52.34198 -37.30687
-232.08139 -52.950256 -38.121902
-233.81638 -53.911438 -38.405426
-236.81509 -54.52002 -39.220474
-238.55038 -55.481506 -39.504028
-241.54962 -56.090393 -40.319107
-243.28519 -57.052063 -40.602692
-246.28476 -57.661255 -41.417801
-248.02066 -58.62323 -41.701401
-250.15262 -58.75177 -42.374756
-251.88876 -59.713867 -42.658386
-254.02103 -59.842468 -43.331787
-255.75742 -60.804871 -43.615417
223.75838 137.87927 56.520111
221.95619 136.89801 56.220291
220.15457 135.91687 55.920624
218.35349 134.9361 55.621033
216.96143 133.11462 55.717743
215.16139 132.13434 55.418304
213.36192 131.15436 55.119019
211.56299 130.17474 54.819794
209.7646 129.19519 54.520691
207.96675 128.216 54.22168
206.16948 127.23706 53.922791
204.37276 126.2583 53.624039
202.57657 125.27985 53.325363
200.78091 124.30157 53.02681
198.98579 123.32367 52.728317
197.59904 121.50562 52.825714
195.80496 120.52826 52.52742
194.01141 119.55109 52.229218
192.21838 118.5741 51.931168
190.4259 117.59735 51.633179
188.63391 116.62091 51.335297
186.84254 115.64459 51.037567
185.05165 114.66858 50.739899
183.26126 113.69281 50.442352
181.47144 112.71722 50.144897
179.68211 111.74194 49.847565
177.89336 110.76685 49.550323
176.10506 109.79193 49.253174
174.31734 108.81726 48.956161
172.53011 107.84283 48.659241
170.74339 106.86865 48.362411
160.92561 101.51434 46.731766
159.54869 99.70282 46.83046
157.3593 99.569031 46.139557
155.98332 97.757935 46.238403
153.79503 97.624512 45.547775
152.01361 96.652527 45.252045
150.2327 95.680725 44.956406
148.45227 94.709229 44.660858
138.66869 89.369385 43.03717
136.89145 88.39917 42.74231
135.11465 87.429138 42.447525
133.33835 86.459229 42.152832
131.5625 85.489624 41.858246
129.78716 84.520203 41.563751
128.01224 83.550903 41.269348
118.25856 78.223267 39.651917
116.48662 77.255188 39.358139
114.71515 76.287354 39.064468
112.94417 75.31958 38.770905
111.17358 74.352051 38.477417
109.40347 73.384705 38.184052
107.63379 72.417542 37.890732
105.45998 72.287537 37.203873
104.09576 70.483643 37.304459
101.92293 70.353943 36.617828
100.15506 69.387329 36.324951
98.387634 68.420959 36.03215
96.620605 67.454712 35.739471
94.854034 66.488647 35.446869
93.087875 65.522766 35.154358
91.322113 64.557007 34.861938
89.556763 63.591431 34.569595
87.791885 62.626038 34.277359
84.741486 62.014648 33.445923
82.9776 61.049561 33.153931
81.214233 60.084595 32.862061
79.451187 59.119873 32.570236
77.688568 58.155151 32.278519
75.926376 57.190674 31.986908
74.164566 56.226318 31.695358
72.403107 55.262207 31.4039
70.642105 54.298096 31.112549
68.88147 53.334229 30.821259
67.121216 52.370422 30.530075
64.07843 51.760986 29.700577
62.319183 50.797485 29.409637
60.560333 49.834167 29.118774
58.801849 48.870972 28.827988
57.043716 47.907898 28.537292
55.285934 46.944946 28.246689
53.528549 45.982117 27.956177
50.49054 45.373779 27.127914
48.7341 44.411255 26.837616
46.978027 43.448853 26.547424
43.942215 42.840942 25.719772
42.589401 41.043335 25.822235
40.834549 40.081299 25.532318
39.080032 39.119446 25.242447
37.325867 38.157715 24.952682
35.572067 37.195923 24.662994
33.818588 36.234436 24.373367
31.663437 36.108276 23.691559
29.91069 35.146912 23.40213
28.158264 34.185669 23.112793
26.406113 33.224426 22.823502
24.654312 32.263428 22.534302
21.62558 31.657166 21.708527
19.874619 30.69635 21.419525
18.123993 29.735596 21.13063
16.373672 28.774963 20.841797
14.623642 27.814331 20.55304
11.597855 27.208679 19.728088
9.8486633 26.248291 19.439514
8.0997314 25.288086 19.151047
5.0758209 24.682617 18.326614
3.7286987 22.887817 18.43013
1.5798035 22.762573 17.750122
-0.16775513 21.802734 17.46196
-1.9150543 20.842896 17.173889
-3.6620636 19.883118 16.885864
-5.4088135 18.923462 16.597931
-7.1552582 17.963867 16.310059
-8.901474 17.004333 16.022247
-10.647385 16.044861 15.734528
-13.666351 15.44043 14.911499
-15.411591 14.48114 14.623932
-17.156555 13.521851 14.336456
-18.901291 12.562744 14.049011
-20.645782 11.603577 13.761658
-22.390015 10.644531 13.474365
-24.53421 10.519958 12.795715
-26.277924 9.5609741 12.508575
-28.021362 8.6021118 12.221497
-29.764603 7.6433105 11.934479
-32.778992 7.0394287 11.112762
-34.521622 6.0806885 10.825897
-36.264008 5.1220093 10.539108
-38.006119 4.1633911 10.25238
-39.748123 3.204834 9.9657135
-41.489822 2.2463379 9.6791077
-43.630981 2.1220093 9.0014038
-45.372269 1.1635132 8.7149048
-47.113312 0.20513916 8.4284973
-48.854156 -0.7532959 8.1421204
-57.954834 -4.7106323 6.3200836
-59.694489 -5.6688232 6.0340881
-61.83316 -5.7929688 5.3571625
-63.572403 -6.7512207 5.0712433
-65.311523 -7.7092896 4.7854004
-67.050446 -8.6673584 4.4995728
-70.057449 -9.2706299 3.6801453
-71.795898 -10.228638 3.3944702
-73.53421 -11.186707 3.1088409
-75.272339 -12.144775 2.823288
-77.010345 -13.102783 2.5377502
-80.015732 -13.705933 1.7188416
-81.753342 -14.66394 1.4334412
-83.490768 -15.622009 1.1481018
-85.228088 -16.579956 0.86280823
-88.232224 -17.183167 0.044311523
-89.969116 -18.141113 -0.24087524
-92.104309 -18.26532 -0.91662598
-93.840912 -19.223267 -1.2016907
-95.577423 -20.181396 -1.4867249
-97.313812 -21.139282 -1.7717285
-100.31635 -21.742554 -2.5896606
-102.0524 -22.700623 -2.874527
-103.78836 -23.65863 -3.1593628
-105.52426 -24.616638 -3.4441833
-108.52573 -25.220032 -4.2617493
-110.26132 -26.178101 -4.5464325
-111.9968 -27.13623 -4.8310852
-113.73215 -28.09436 -5.1156921
-115.46747 -29.05249 -5.4002991
-117.60049 -29.17688 -6.0752258
-119.3356 -30.13501 -6.3597412
-121.07059 -31.093262 -6.6441956
-122.80548 -32.051514 -6.9286194
-132.27414 -35.175659 -9.1309204
-134.00858 -36.134094 -9.4151306
-135.74301 -37.092468 -9.6993256
-137.47733 -38.051025 -9.98349
-139.21167 -39.009583 -10.267609
-149.54407 -42.614746 -12.610275
-151.6752 -42.739868 -13.284393
-153.40927 -43.69873 -13.568329
-155.14319 -44.657593 -13.852234
-156.87711 -45.616577 -14.136093
-166.34048 -48.744812 -16.335358
-169.3381 -49.349976 -17.151047
-171.07193 -50.309387 -17.434753
-172.80579 -51.268799 -17.718445
-174.53967 -52.228394 -18.002106
-184.00247 -55.359436 -20.200317
-186.133 -55.485535 -20.873932
-187.86697 -56.445557 -21.157486
-189.60098 -57.40564 -21.44104
-191.33505 -58.365845 -21.724548
-201.66592 -61.98053 -24.063812
-204.66391 -62.587646 -24.879028
-206.39835 -63.548523 -25.162476
-208.13281 -64.50946 -25.445923
-210.26364 -64.636475 -26.119339
-211.99832 -65.597656 -26.402786
-214.9967 -66.205444 -27.217926
-216.73148 -67.166809 -27.501343
-219.7301 -67.774902 -28.316467
-221.46518 -68.736572 -28.599884
-224.46402 -69.344971 -29.415009
-226.19925 -70.306824 -29.698425
-227.93463 -71.268799 -29.981842
-230.06622 -71.396729 -30.655243
-231.80182 -72.358887 -30.93869
-233.9335 -72.486816 -31.612091
-235.66934 -73.449341 -31.895508
-237.80124 -73.577515 -32.568939
-239.53732 -74.5401 -32.852386
-242.53757 -75.149902 -33.667572
-244.2739 -76.112793 -33.95105
-246.40628 -76.241394 -34.624481
-248.14291 -77.204468 -34.907974
-251.14401 -77.814941 -35.723206
-252.88092 -78.778381 -36.006699
230.24812 119.50873 65.459793
228.4451 118.5293 65.159134
227.0526 116.70856 65.255447
225.25061 115.72974 64.954956
223.44917 114.7511 64.654587
221.64827 113.77271 64.354294
219.84799 112.79449 64.054169
218.0482 111.81665 63.75412
216.24895 110.83899 63.454163
214.85986 109.02045 63.550919
213.06168 108.04333 63.251175
211.26399 107.06647 62.951508
209.4669 106.08978 62.651962
207.67033 105.1134 62.352554
205.87428 104.13727 62.053177
204.07878 103.16132 61.753998
202.28386 102.18555 61.454895
200.48943 101.21008 61.155899
198.69556 100.2348 60.856995
196.90219 99.259705 60.558228
195.51825 97.444641 60.655655
193.72589 96.470032 60.357071
191.9341 95.495789 60.058578
190.14281 94.521667 59.760178
188.76074 92.707703 59.857925
186.9704 91.734131 59.559662
185.18062 90.760742 59.261581
183.39131 89.787598 58.963562
181.60257 88.814697 58.665665
179.81433 87.841919 58.367874
178.02664 86.869446 58.070236
176.23941 85.897156 57.772644
174.45274 84.924988 57.475174
171.3656 84.306702 56.63356
169.58023 83.335083 56.336411
167.79538 82.363586 56.039398
166.01105 81.392395 55.742432
164.22717 80.421387 55.445572
162.44385 79.4505 55.148849
160.25345 79.31897 54.456909
158.47116 78.348572 54.1604
156.68936 77.378174 53.864044
154.90808 76.408081 53.567749
153.12726 75.438171 53.271606
150.45697 73.983704 52.82753
148.67737 73.014221 52.531601
146.89828 72.044983 52.23584
145.1196 71.075928 51.940109
143.34149 70.107056 51.644485
141.56381 69.138367 51.349014
139.78665 68.169861 51.053635
138.00989 67.201538 50.758316
136.23364 66.233337 50.463104
134.45789 65.265442 50.168015
131.79504 63.813843 49.725571
130.02042 62.846375 49.43071
128.24625 61.878967 49.135971
126.47253 60.911804 48.841339
124.69928 59.944824 48.546768
122.92654 58.977905 48.252365
120.74811 58.849182 47.563583
118.09052 57.399475 47.122269
116.31937 56.433167 46.828217
114.54865 55.467041 46.534271
112.77835 54.501038 46.240402
111.00854 53.535217 45.946625
109.23914 52.569519 45.652954
107.47018 51.604065 45.359406
105.70163 50.638733 45.065918
103.9335 49.673523 44.772537
102.16584 48.708496 44.479263
100.39857 47.743591 44.186035
97.34333 47.133911 43.352493
95.577187 46.169312 43.059555
93.81147 45.204895 42.766769
90.758766 44.595581 41.933899
89.398933 42.794495 42.03511
87.634651 41.830566 41.742599
85.870766 40.866821 41.45018
84.107277 39.903137 41.157883
82.344185 38.939636 40.865646
80.58149 37.976318 40.573517
77.533821 37.368286 39.741928
75.772163 36.405212 39.450058
74.010902 35.442261 39.158279
72.250038 34.479431 38.866577
62.16819 30.022583 36.870605
60.409798 29.060547 36.579498
58.651802 28.098511 36.288498
56.894112 27.13678 35.997559
55.136848 26.175049 35.706772
53.379921 25.21344 35.416
44.197365 21.243103 33.570602
42.442604 20.282043 33.280396
40.688148 19.321167 32.990265
37.654175 18.716003 32.162399
35.900604 17.75531 31.872482
34.1474 16.794678 31.582687
32.394501 15.834167 31.292923
22.356842 11.388672 29.308243
20.606049 10.428772 29.018997
18.85556 9.4688721 28.729904
17.105347 8.5090942 28.440811
15.355469 7.5493774 28.151871
12.329163 6.9454956 27.326157
10.580078 5.9859009 27.037399
8.8312073 5.0264282 26.748703
7.0827332 4.0670776 26.460068
5.3344421 3.107666 26.171555
3.5865173 2.1483765 25.883087
1.4371338 2.0245972 25.202469
-0.31021118 1.0654297 24.914169
-2.057312 0.10626221 24.625946
-3.8041077 -0.8527832 24.337799
-5.5506897 -1.8117676 24.049698
-14.680725 -5.7706909 22.218338
-17.699097 -6.3734741 21.394974
-19.443695 -7.3320923 21.107407
-21.187988 -8.2907104 20.819977
-22.932098 -9.2492065 20.532562
-25.948456 -9.8518677 19.709793
-27.691986 -10.810364 19.422562
-29.435211 -11.768738 19.135422
-31.178223 -12.727112 18.848328
-32.920959 -13.685425 18.561325
-34.663513 -14.643738 18.274338
-36.806305 -14.767029 17.595779
-38.548431 -15.725342 17.308945
-40.290283 -16.683533 17.022217
-42.031982 -17.641724 16.735489
-45.04425 -18.24408 15.914017
-46.78537 -19.202209 15.627487
-48.526337 -20.160339 15.341003
-50.26709 -21.118408 15.054581
-52.007629 -22.076538 14.768234
-55.017944 -22.678833 13.947372
-56.757996 -23.63678 13.661163
-58.497894 -24.59491 13.375015
-60.237579 -25.552917 13.088913
-63.246429 -26.155212 12.26857
-64.985687 -27.113098 11.98262
-66.724731 -28.071228 11.696747
-68.463684 -29.029114 11.410889
-70.202393 -29.987122 11.125107
-73.209564 -30.589417 10.305313
-74.947876 -31.547424 10.019699
-76.686096 -32.505432 9.7340851
-78.424103 -33.463501 9.4485626
-81.429993 -34.065857 8.6292267
-83.167694 -35.023865 8.3437958
-85.304138 -35.147278 7.6673889
-87.041504 -36.105286 7.3820953
-88.778748 -37.063416 7.0968475
-90.515808 -38.021423 6.8116455
-93.52002 -38.623962 5.9929352
-95.256744 -39.582092 5.70784
-96.993408 -40.540222 5.4228058
-98.72998 -41.498413 5.1378021
-106.94156 -44.975891 3.4649963
-109.94379 -45.578796 2.647049
-111.67957 -46.53717 2.3623505
-113.41525 -47.495544 2.077713
-115.15094 -48.453979 1.7931061
-124.62396 -51.577515 -0.41081238
-126.3591 -52.536194 -0.69519043
-129.35956 -53.139709 -1.5123596
-131.09454 -54.09845 -1.7966461
-132.82941 -55.057312 -2.0808716
-134.56433 -56.016174 -2.365097
-144.90042 -59.621765 -4.708847
-147.89978 -60.226013 -5.5254059
-149.63416 -61.185364 -5.8093414
-151.36871 -62.144714 -6.0933075
-153.10315 -63.104187 -6.3771973
-155.23492 -63.229126 -7.0515594
-156.96936 -64.188721 -7.335434
-158.70374 -65.148376 -7.6192169
-160.43811 -66.108093 -7.9030304
-162.5697 -66.233215 -8.5772552
-164.30408 -67.193115 -8.8610077
-166.03845 -68.153137 -9.1447296
-167.77289 -69.113098 -9.4284363
-170.77148 -69.718567 -10.244385
-172.90292 -69.844116 -10.918442
-174.63727 -70.80426 -11.202057
-176.3717 -71.764709 -11.485657
-178.10617 -72.725159 -11.769241
-180.23749 -72.851013 -12.443222
-181.97192 -73.811584 -12.72673
-183.70648 -74.772339 -13.010269
-185.44101 -75.733215 -13.293793
-194.90778 -78.868896 -15.491852
-197.03918 -78.995361 -16.165649
-198.77405 -79.956848 -16.449051
-201.77295 -80.564331 -17.264465
-203.508 -81.526062 -17.547867
-205.63953 -81.652893 -18.221558
-207.37463 -82.614807 -18.504929
-209.10989 -83.576782 -18.788284
-212.10913 -84.184998 -19.603622
-213.84454 -85.147278 -19.886948
-216.84412 -85.755859 -20.702271
-218.57977 -86.718384 -20.985611
-220.71173 -86.846008 -21.659225
-222.44757 -87.808777 -21.942551
-225.44763 -88.41803 -22.757797
-227.18372 -89.381104 -23.041122
-229.31598 -89.509094 -23.714722
-231.05222 -90.472412 -23.998032
-234.05292 -91.082336 -24.813309
-235.78949 -92.045898 -25.096634
-237.92224 -92.174377 -25.770248
-239.659 -93.138184 -26.053574
-242.66046 -93.74884 -26.868851
-244.39755 -94.713013 -27.152176
-246.53082 -94.841919 -27.825821
237.17801 100.28888 74.808807
235.37402 99.311279 74.507263
233.57056 98.333984 74.205826
231.76767 97.356873 73.90451
229.96533 96.380005 73.603271
228.16357 95.403259 73.302185
226.77353 93.585022 73.398544
224.97275 92.608948 73.097626
223.17255 91.633057 72.796814
221.37286 90.65741 72.496094
219.57376 89.681885 72.195526
217.77515 88.706726 71.895035
215.97717 87.73175 71.594666
214.17969 86.756958 71.294434
212.38269 85.78241 70.994278
210.5863 84.808044 70.694244
208.79041 83.833984 70.394363
206.99506 82.860107 70.094513
205.20026 81.886414 69.794861
203.40598 80.912964 69.49527
201.61221 79.939758 69.195786
200.22922 78.125854 69.293152
198.43645 77.153076 68.993881
196.64421 76.180542 68.694672
194.85249 75.208252 68.39563
193.06133 74.236084 68.096649
191.27066 73.26416 67.797821
189.48051 72.292358 67.499084
187.69089 71.320923 67.200439
185.90176 70.349609 66.901947
184.11317 69.378418 66.603546
182.32509 68.407532 66.305237
172.98315 64.395935 64.419281
171.19818 63.426086 64.121674
169.82263 61.616699 64.220215
167.6297 61.487122 63.526794
165.84619 60.517883 63.229523
164.0632 59.548828 62.932343
162.28073 58.579956 62.635284
152.48572 53.254517 61.003357
150.70633 52.286804 60.70697
148.92749 51.319336 60.410706
147.14905 50.35199 60.114563
145.37112 49.384827 59.818512
143.59372 48.417786 59.522552
141.81671 47.450989 59.226715
138.74438 46.840088 58.387802
136.08093 45.390381 57.944519
134.30588 44.424194 57.649139
132.53128 43.45813 57.353851
130.75714 42.492188 57.058685
128.09674 41.043701 56.616089
126.32372 40.078186 56.321167
124.55114 39.112854 56.026321
122.77901 38.147644 55.731598
121.00735 37.182617 55.436981
117.94378 36.573792 54.600357
116.58004 34.770691 54.700867
114.8099 33.806152 54.406586
113.04015 32.841797 54.112396
111.2709 31.877563 53.818329
108.21127 31.269653 52.982727
106.44311 30.305725 52.68895
104.67538 29.34198 52.395248
102.90804 28.378296 52.101654
101.14117 27.414795 51.808167
99.374657 26.451416 51.514755
89.260582 21.992859 49.50853
87.496819 21.030396 49.215759
85.733421 20.067932 48.923126
83.97039 19.10553 48.630569
82.207817 18.143311 48.33812
80.44558 17.181213 48.045776
78.683769 16.219238 47.753479
68.595543 11.767639 45.753754
66.836235 10.806335 45.462097
64.672569 10.682373 44.776733
62.913994 9.7213135 44.485291
61.155815 8.7602539 44.19397
59.398003 7.7993164 43.90271
50.210075 3.8331299 42.05426
48.454399 2.8727417 41.763535
46.699089 1.9124756 41.4729
43.662834 1.309021 40.643738
41.908409 0.34887695 40.353394
40.154289 -0.61108398 40.06308
37.120148 -1.2142334 39.234558
35.770447 -3.0107422 39.337708
34.017487 -3.97052 39.047729
32.264832 -4.9301758 38.757782
30.512512 -5.8897705 38.467957
28.357208 -6.0126953 37.785095
26.60553 -6.9721069 37.495407
24.854156 -7.9315186 37.205872
23.103119 -8.8908691 36.916382
21.352325 -9.8501587 36.626953
18.323853 -10.452515 35.800064
16.573883 -11.411499 35.510864
14.824188 -12.370605 35.221771
13.074829 -13.329651 34.932709
11.325714 -14.288574 34.643768
9.5768738 -15.247437 34.354874
7.4258118 -15.369995 33.673309
5.6776123 -16.328796 33.384644
3.9296265 -17.287537 33.096008
2.1819763 -18.246216 32.807434
-0.84124756 -18.847961 31.982117
-2.5881653 -19.806641 31.693787
-4.3348999 -20.765137 31.405518
-6.0813293 -21.723694 31.117325
-7.8275146 -22.682129 30.829178
-9.5734863 -23.640503 30.541122
-11.720947 -23.762817 29.860672
-13.466339 -24.721191 29.572784
-15.211487 -25.679565 29.284973
-16.956482 -26.637817 28.997192
-19.974884 -27.239258 28.17337
-21.719177 -28.19751 27.885834
-23.463257 -29.15564 27.598297
-25.207092 -30.113831 27.310883
-26.950684 -31.07196 27.023529
-29.966858 -31.67334 26.200439
-31.709839 -32.631409 25.913239
-33.452698 -33.589478 25.626129
-35.195251 -34.547546 25.339081
-36.937653 -35.505615 25.052094
-46.047333 -39.4599 23.22612
-48.189056 -39.582214 22.547607
-49.930023 -40.540161 22.261078
-51.670776 -41.498169 21.974609
-53.411346 -42.456177 21.688232
-55.151794 -43.414185 21.401886
-64.651489 -46.532959 19.187561
-66.390808 -47.490967 18.901596
-69.399384 -48.092407 18.081085
-71.138275 -49.050537 17.795288
-72.877075 -50.008545 17.509491
-74.615692 -50.966736 17.223816
-82.837341 -54.442871 15.547211
-85.843414 -55.044556 14.727631
-87.581024 -56.002869 14.442307
-89.318573 -56.961243 14.157028
-91.055969 -57.919556 13.871796
-94.060974 -58.521484 13.052643
-95.798126 -59.47998 12.767532
-97.934082 -59.602783 12.091095
-99.670959 -60.561279 11.806122
-101.40765 -61.519897 11.521179
-103.14429 -62.478394 11.236267
-106.14798 -63.080811 10.417694
-107.88437 -64.039429 10.132904
-109.62064 -64.998169 9.8481598
-111.35687 -65.956909 9.5634766
-113.49164 -66.0802 8.887558
-115.22763 -67.039063 8.6029663
-116.96359 -67.997986 8.3183899
-118.69955 -68.956909 8.0338745
-121.70169 -69.559875 7.2159729
-123.43738 -70.519043 6.9315491
-125.17303 -71.478271 6.6471558
-126.90869 -72.437439 6.362793
-129.9101 -73.040771 5.5452728
-132.0437 -73.164612 4.8699188
-133.77908 -74.123962 4.5857086
-135.51443 -75.083496 4.3015137
-137.24973 -76.043091 4.017395
-140.25058 -76.646973 3.2001953
-141.98575 -77.606689 2.9161682
-143.72092 -78.566528 2.6321106
-145.45605 -79.526428 2.3481445
-147.19116 -80.486328 2.0641785
-157.92679 -83.260498 -0.66986084
-159.66177 -84.221069 -0.95359802
-161.39673 -85.181641 -1.2373352
-163.13177 -86.142212 -1.5210419
-173.46902 -89.755859 -3.8627167
-175.60123 -89.881348 -4.5370789
-177.33633 -90.842712 -4.8206024
-179.07144 -91.804199 -5.1040955
-180.80655 -92.765747 -5.3876038
-182.54181 -93.727417 -5.6710663
-193.27679 -96.510559 -8.4020996
-196.27673 -97.118103 -9.217865
-198.01227 -98.080566 -9.5012054
-199.74792 -99.043152 -9.7845154
-201.88025 -99.1698 -10.458527
-203.616 -100.13263 -10.741821
-205.35184 -101.09558 -11.025116
-207.48431 -101.22253 -11.699066
-209.22028 -102.18567 -11.98233
-211.35278 -102.31299 -12.65625
-213.08896 -103.27631 -12.939514
-216.08972 -103.8855 -13.755035
-217.82608 -104.84918 -14.038269
-220.82724 -105.45886 -14.85376
-222.56381 -106.42285 -15.136963
-225.56525 -107.0329 -15.952423
-227.30206 -107.99719 -16.235626
-229.43527 -108.12537 -16.90947
-231.17239 -109.09003 -17.192657
-234.17441 -109.70081 -18.008118
-235.91187 -110.66565 -18.291321
-238.0455 -110.79443 -18.965134
-239.78314 -111.75964 -19.248352
243.72714 81.900269 83.773972
241.92221 80.924316 83.471573
240.11781 79.948669 83.169327
238.72681 78.130493 83.26532
236.92348 77.155334 82.963242
235.12065 76.180359 82.66127
233.31834 75.205627 82.359406
231.51666 74.23114 82.057663
229.71547 73.256775 81.756042
227.91484 72.282715 81.454544
226.11475 71.308899 81.153107
224.3152 70.335205 80.851822
222.51617 69.361755 80.550659
220.7177 68.388611 80.249573
218.9198 67.415588 79.948669
217.12238 66.442749 79.647842
215.32553 65.470215 79.347092
213.52917 64.497803 79.046494
211.73338 63.525696 78.745987
210.34985 61.712036 78.843124
208.55504 60.740295 78.542831
206.76076 59.768799 78.242661
204.96701 58.797546 77.942581
203.17374 57.826416 77.642624
201.38103 56.85553 77.342758
199.58882 55.884827 77.042999
197.79715 54.914307 76.743393
195.59485 54.785278 76.046738
193.80428 53.815063 75.747375
192.01422 52.845093 75.448105
190.22469 51.875305 75.149002
188.43564 50.905762 74.84996
185.75304 49.451721 74.401642
183.96532 48.482605 74.102905
182.17805 47.513611 73.804276
180.39128 46.544861 73.505768
178.60503 45.576233 73.207382
176.81929 44.607849 72.909058
175.03401 43.639648 72.610886
173.24925 42.671631 72.312805
171.46498 41.703735 72.014847
169.68123 40.736023 71.71701
167.89796 39.768555 71.419281
166.11516 38.801208 71.121628
164.33284 37.834045 70.824112
162.55098 36.867004 70.526688
160.7697 35.900146 70.229416
158.98885 34.933533 69.932205
157.20842 33.967102 69.635132
155.42854 33.000671 69.338165
152.3502 32.391479 68.496719
150.57158 31.425476 68.200058
148.79341 30.459656 67.903519
147.01567 29.494019 67.607071
138.13402 24.667969 66.126419
136.35902 23.703186 65.830612
134.58449 22.738586 65.534866
132.81044 21.774109 65.239288
130.62843 21.649292 64.548111
128.85539 20.68512 64.252762
127.08269 19.721008 63.957504
125.31047 18.75708 63.662354
123.53871 17.793274 63.367325
121.76735 16.829651 63.072388
119.99648 15.866089 62.777557
118.22597 14.90271 62.482803
116.45592 13.939453 62.188217
114.68626 12.976318 61.893661
112.9171 12.013306 61.599258
110.7408 11.889465 60.909637
108.97252 10.926636 60.615463
107.20461 9.9640503 60.321365
104.14641 9.3591309 59.485336
102.78676 7.5579224 59.586624
101.02034 6.5956421 59.292862
99.254288 5.6335449 58.999237
97.488663 4.6715088 58.705719
95.723434 3.7096558 58.412277
92.66954 3.1056519 57.577377
90.905411 2.144043 57.284225
89.141647 1.1824341 56.99118
87.37825 0.2210083 56.698196
85.61525 -0.74029541 56.40535
75.519516 -5.187439 54.401733
73.759048 -6.1480713 54.109497
71.998886 -7.1087036 53.817398
69.83342 -7.2310181 53.13092
68.074081 -8.1914673 52.83902
66.315109 -9.1517944 52.547211
56.647141 -14.432251 50.943863
53.607132 -15.034119 50.112946
51.850998 -15.993835 49.821869
50.095261 -16.95343 49.530914
48.339767 -17.912964 49.240005
46.584641 -18.872498 48.949203
37.409409 -22.831299 47.102707
35.656296 -23.790405 46.812454
32.62294 -24.391418 45.983505
30.870621 -25.350403 45.693497
29.118637 -26.309387 45.403595
27.366928 -27.268188 45.113724
24.336014 -27.868958 44.285522
22.585129 -28.827698 43.995926
20.834518 -29.786438 43.70639
19.084183 -30.745117 43.416946
17.334122 -31.703735 43.127563
15.584366 -32.662292 42.838272
13.431442 -32.783508 42.155685
11.682266 -33.741943 41.866577
9.9333954 -34.7005 41.57753
8.1847992 -35.658813 41.288589
5.1592865 -36.259216 40.462082
3.4113922 -37.217529 40.173325
1.6637726 -38.175842 39.884689
-0.083602905 -39.134155 39.596085
-1.8307343 -40.092468 39.307587
-4.853653 -40.692566 38.481888
-6.6000824 -41.650818 38.193604
-8.3463287 -42.608948 37.90538
-10.092239 -43.567078 37.617218
-13.113144 -44.167236 36.792191
-14.858475 -45.125305 36.504227
-16.603561 -46.083374 36.21637
-18.348404 -47.041504 35.928574
-20.093033 -47.999512 35.640823
-23.111557 -48.59967 34.816589
-24.855576 -49.557678 34.529037
-26.599411 -50.515686 34.241562
-28.343033 -51.473694 33.954147
-30.086411 -52.431824 33.666855
-39.603317 -55.548096 31.445999
-41.345383 -56.506104 31.159103
-43.087326 -57.464111 30.872269
-44.829056 -58.42218 30.585526
-46.570602 -59.380188 30.298813
-48.311996 -60.338318 30.012161
-58.688126 -63.934326 27.652054
-60.42836 -64.892517 27.365829
-62.569016 -65.013916 26.687393
-64.308853 -65.972107 26.401291
-66.048569 -66.930359 26.11528
-67.788071 -67.888733 25.829346
-78.153427 -71.486267 23.473312
-79.892014 -72.444763 23.187729
-81.630478 -73.403259 22.902191
-83.368851 -74.361877 22.61673
-85.107132 -75.320435 22.331314
-94.595825 -78.440735 20.121109
-96.333374 -79.399597 19.835999
-98.470245 -79.521851 19.159103
-100.20752 -80.480774 18.874115
-101.94476 -81.43988 18.589142
-103.68185 -82.398987 18.304276
-105.88812 -84.6745 18.268814
-117.03638 -86.604187 15.136124
-118.77274 -87.563721 14.851608
-120.50912 -88.523376 14.567093
-122.24548 -89.483093 14.282669
-131.72339 -92.609314 12.077927
-133.45938 -93.569519 11.793747
-135.59372 -93.692993 11.118057
-137.32959 -94.65332 10.833984
-139.06549 -95.613708 10.549881
-149.40851 -99.223877 8.2052155
-152.41006 -99.828552 7.3880463
-154.14569 -100.78973 7.1042328
-155.88144 -101.75092 6.8204498
-157.61707 -102.71216 6.5367279
-167.09088 -105.84637 4.3358307
-170.09207 -106.45233 3.5191803
-171.82779 -107.41437 3.2356415
-173.56357 -108.37653 2.9521637
-183.03757 -111.51508 0.7525177
-184.77359 -112.47791 0.46914673
-186.90674 -112.60382 -0.20539856
-188.64282 -113.56689 -0.48872375
-190.37894 -114.52997 -0.77204895
-192.51218 -114.65619 -1.4464874
-194.24847 -115.61963 -1.7297821
-197.24988 -116.22784 -2.5458221
-198.98624 -117.19159 -2.8290253
-201.98782 -117.80023 -3.6450043
-203.72446 -118.76428 -3.9281921
-205.46109 -119.72845 -4.21138
-207.5946 -119.85553 -4.8856659
-209.33136 -120.81989 -5.168808
-211.465 -120.9472 -5.8430634
-213.20193 -121.91193 -6.1261902
-216.20419 -122.52191 -6.9419708
-217.9415 -123.48694 -7.2250671
-220.07529 -123.61469 -7.8992615
-221.81277 -124.58002 -8.1823578
-224.81555 -125.19086 -8.9980316
-226.55325 -126.15649 -9.2811279
-228.68747 -126.28485 -9.955246
-230.42545 -127.25067 -10.238327
-232.55978 -127.37933 -10.91243
-234.298 -128.34552 -11.195511
249.4034 63.010681 92.601837
248.01221 61.192871 92.697662
246.207 60.218872 92.394623
244.40233 59.245178 92.091644
242.59822 58.271667 91.788788
240.79468 57.29834 91.486053
238.99167 56.325317 91.183441
237.18919 55.352356 90.880951
235.38727 54.3797 90.578552
233.58588 53.407227 90.276276
231.785 52.434937 89.974152
229.98468 51.462891 89.672089
228.18491 50.491028 89.370209
226.38565 49.519409 89.06839
224.58693 48.547913 88.766693
222.78877 47.576721 88.465118
220.99113 46.605652 88.163666
219.19402 45.634766 87.862335
217.81068 43.821533 87.959442
216.01453 42.851074 87.658295
214.21892 41.880859 87.357269
212.42383 40.910828 87.056366
210.62927 39.94104 86.755554
208.83522 38.971375 86.454865
207.0417 38.001892 86.154327
204.83598 37.874878 85.455872
203.04355 36.905701 85.155579
201.25168 35.936768 84.855377
199.4603 34.968018 84.555328
197.66942 33.999451 84.255386
195.4668 33.872986 83.5578
194.0892 32.062805 83.655823
192.29987 31.094727 83.356247
190.51102 30.126831 83.056763
188.72266 29.159119 82.75737
186.93484 28.191589 82.45813
185.14749 27.224243 82.158966
183.36063 26.257019 81.859955
181.57428 25.289978 81.561035
179.78842 24.323181 81.262222
178.00305 23.356506 80.963531
176.2182 22.389954 80.664963
174.02249 22.264954 79.969223
172.64993 20.457397 80.06813
170.86652 19.491272 79.769928
169.08356 18.525452 79.471802
167.30112 17.559753 79.173767
165.51913 16.594177 78.87587
163.32678 16.469849 78.18103
161.54587 15.504578 77.883423
159.76538 14.539429 77.585861
157.98535 13.574402 77.288437
156.20584 12.609558 76.99115
154.42676 11.644836 76.69397
152.64816 10.680298 76.396881
149.57095 10.074463 75.554749
147.79355 9.1102905 75.257965
146.01666 8.1461792 74.961304
144.24017 7.1821899 74.664734
141.57635 5.7365112 74.220093
139.80099 4.7729492 73.923828
138.02609 3.8094482 73.62764
136.25165 2.8460693 73.331589
134.47766 1.8827515 73.035645
131.40808 1.2785645 72.195587
128.74905 -0.16583252 71.752136
126.97687 -1.12854 71.456665
125.20511 -2.0911255 71.16124
123.43378 -3.0536499 70.865952
121.66287 -4.0160522 70.570801
119.8924 -4.9783325 70.275726
118.12234 -5.9404907 69.980743
116.35278 -6.9024658 69.685883
114.58356 -7.8644409 69.391129
112.81473 -8.8262329 69.096481
102.68558 -13.274475 67.082001
100.91949 -14.235535 66.788025
99.153809 -15.196594 66.494171
97.388489 -16.157593 66.200424
95.623596 -17.118408 65.906769
93.85907 -18.079163 65.61322
92.094971 -19.039795 65.319794
89.449463 -20.480591 64.879791
87.686279 -21.44104 64.586563
85.923462 -22.401367 64.293457
84.161072 -23.361694 64.000473
82.399017 -24.321777 63.70755
80.230225 -24.442505 63.019485
78.468964 -25.402527 62.726822
76.708099 -26.362427 62.434235
74.947571 -27.322327 62.141739
73.187408 -28.282104 61.849335
70.141205 -28.882385 61.015884
68.382019 -29.842041 60.723755
66.623108 -30.801514 60.431732
64.864624 -31.761047 60.139771
63.106476 -32.720398 59.847946
61.348633 -33.679749 59.556183
58.306427 -34.279541 58.723923
56.54953 -35.238831 58.432434
54.792969 -36.197937 58.141052
53.036713 -37.156982 57.849762
43.854828 -41.11261 56.000031
42.100555 -42.071411 55.70929
39.064453 -42.670593 54.878876
37.311035 -43.629333 54.588409
35.557953 -44.587891 54.298019
33.805145 -45.546509 54.007721
23.765259 -49.979248 52.018341
20.734589 -50.578186 51.189667
18.984192 -51.536438 50.900055
17.23407 -52.49469 50.610565
15.484253 -53.453003 50.321167
13.734711 -54.411194 50.03183
11.11084 -55.848511 49.597992
2.4352722 -58.483154 47.509857
-0.58966064 -59.08197 46.683044
-2.3368835 -60.040039 46.394455
-4.0838318 -60.998108 46.105927
-7.1071777 -61.596924 45.279678
-8.8534546 -62.554993 44.991394
-10.599548 -63.513 44.703156
-12.345398 -64.471008 44.415009
-14.091034 -65.429077 44.126968
-17.111938 -66.027893 43.301483
-18.856964 -66.985962 43.013641
-20.601807 -67.944031 42.725815
-22.346405 -68.902039 42.43811
-24.090759 -69.860046 42.150467
-33.614227 -72.974243 39.926758
-35.357361 -73.932434 39.639587
-37.10025 -74.890564 39.352448
-38.842957 -75.848694 39.065384
-40.58551 -76.806946 38.778397
-43.60083 -77.406128 37.954926
-51.84024 -80.880432 36.271851
-54.853485 -81.47998 35.449173
-56.594452 -82.438416 35.162781
-58.335205 -83.396851 34.876465
-60.075867 -84.355286 34.590179
-63.087708 -84.955139 33.768066
-65.228973 -85.075745 33.089172
-66.968964 -86.034363 32.803162
-68.708893 -86.992981 32.517197
-70.4487 -87.95166 32.231262
-72.188385 -88.9104 31.945435
-75.198212 -89.510681 31.124115
-76.937531 -90.469543 30.838379
-78.676727 -91.428467 30.552765
-80.415771 -92.387451 30.267181
-90.779022 -95.986877 27.91243
-92.517273 -96.946228 27.627197
-94.255493 -97.905579 27.342041
-95.993591 -98.865051 27.056931
-99.000488 -99.46637 26.236954
-101.13812 -99.588074 25.559601
-102.87582 -100.54779 25.274658
-104.61346 -101.50763 24.989838
-106.35107 -102.46747 24.705002
-109.35687 -103.0694 23.885559
-111.09418 -104.02942 23.600876
-112.83151 -104.98944 23.316223
-114.56873 -105.94971 23.031616
-124.92093 -109.55621 20.682755
-127.92517 -110.15924 19.864166
-129.66193 -111.12012 19.579941
-131.39868 -112.08099 19.295715
-133.13541 -113.04211 19.011597
-142.61584 -116.17255 16.807312
-145.61908 -116.77692 15.989471
-147.35553 -117.73871 15.705627
-149.09204 -118.70056 15.421783
-150.82855 -119.66254 15.138
-161.57364 -122.44086 12.402069
-163.31015 -123.4035 12.118454
-165.04663 -124.36633 11.834915
-166.78317 -125.32928 11.551407
-169.78592 -125.93555 10.734344
-171.92023 -126.06055 10.059143
-174.92279 -126.6673 9.2422638
-176.65945 -127.63074 8.9588928
-178.39612 -128.59442 8.6755066
-180.13287 -129.55817 8.3921814
-182.26718 -129.68372 7.7171478
-184.004 -130.64764 7.4338684
-187.00671 -131.25555 6.6172791
-188.74371 -132.21991 6.3340454
-190.48068 -133.18433 6.0508423
-192.61505 -133.31049 5.3759766
-194.35217 -134.27521 5.0928345
-196.48657 -134.40155 4.4180298
-198.22382 -135.36664 4.1349182
-201.22696 -135.97583 3.3186035
-202.96439 -136.9411 3.0355225
-205.96765 -137.5509 2.2193298
-207.70544 -138.51654 1.9362488
-210.70895 -139.12677 1.1201172
-212.44681 -140.09277 0.83709717
-214.58163 -140.2204 0.16253662
-216.3197 -141.18671 -0.12045288
-219.32373 -141.79779 -0.93647766
-221.0621 -142.76447 -1.2194519
-223.1972 -142.89264 -1.8939514
-224.93582 -143.85956 -2.1769104
-227.07101 -143.98798 -2.8513489
-228.80988 -144.95526 -3.1342926
257.82019 45.565063 101.90048
256.01294 44.592102 101.59641
254.62219 42.774841 101.69223
252.81595 41.802368 101.38834
251.01022 40.830139 101.08456
249.20505 39.858032 100.78091
247.40045 38.88623 100.47739
245.59637 37.914551 100.17398
243.79279 36.943054 99.870697
241.98981 35.971741 99.567535
240.18735 35.000671 99.264435
238.38538 34.029785 98.961517
236.58398 33.059143 98.658661
234.78311 32.088684 98.355988
232.98279 31.118408 98.053406
231.18298 30.148315 97.750946
229.3837 29.178345 97.448578
227.58499 28.208618 97.146332
225.78674 27.239014 96.844238
223.98904 26.269775 96.542267
222.19186 25.300537 96.240356
220.39523 24.331543 95.938629
218.59909 23.362793 95.636993
216.8035 22.394104 95.33548
215.00839 21.42572 95.034088
213.21384 20.457397 94.732819
211.41974 19.489319 94.43161
209.62622 18.521484 94.130585
207.83319 17.55365 93.82962
206.04065 16.586121 93.528839
204.24863 15.618713 93.228119
202.04346 15.494507 92.528961
200.66614 13.684387 92.627106
198.87567 12.717468 92.326752
197.08566 11.750793 92.02652
195.2962 10.78418 91.72641
193.5072 9.8178711 91.426422
191.71866 8.8516235 91.126556
189.93066 7.885498 90.826813
188.14316 6.9195557 90.527161
186.35614 5.9538574 90.227631
184.56964 4.9881592 89.928192
182.78357 4.0227661 89.628937
173.44821 0.040100098 87.736237
171.66516 -0.92456055 87.437653
169.88257 -1.8890381 87.139221
168.10043 -2.8533325 86.840851
166.31882 -3.8175049 86.542633
164.5376 -4.7815552 86.244537
162.7569 -5.7454224 85.946503
159.67496 -6.3490601 85.102142
157.89548 -7.3126221 84.804474
156.11646 -8.276123 84.506897
154.33789 -9.2393799 84.209457
152.55978 -10.202637 83.912125
150.78214 -11.16571 83.614914
149.00491 -12.128662 83.317764
147.22818 -13.091553 83.020767
145.45187 -14.054199 82.723907
143.67599 -15.016785 82.427109
141.90054 -15.979248 82.130417
140.12561 -16.941589 81.833893
138.35107 -17.903809 81.537415
136.98767 -19.70752 81.638214
135.21393 -20.669434 81.341934
133.44058 -21.631287 81.045792
131.66769 -22.593018 80.749741
129.89523 -23.554688 80.453812
128.1232 -24.516235 80.158005
126.35159 -25.477661 79.862289
124.58038 -26.438965 79.56665
122.80959 -27.400146 79.271149
121.03921 -28.361267 78.975769
119.26928 -29.322266 78.680481
117.49972 -30.283203 78.3853
115.73058 -31.244019 78.090225
113.96188 -32.204773 77.795258
112.19357 -33.165405 77.500381
110.42559 -34.125916 77.205612
108.65807 -35.086365 76.91098
105.5982 -35.68573 76.072678
103.83175 -36.645935 75.778305
102.06567 -37.606201 75.484055
100.29998 -38.566284 75.189926
98.53466 -39.526245 74.895874
95.4786 -40.125183 74.058685
94.12307 -41.925903 74.161209
91.068626 -42.524597 73.324478
89.30526 -43.484253 73.030991
87.542259 -44.443848 72.737564
85.779655 -45.40332 72.444275
84.017448 -46.362732 72.151077
82.255547 -47.322144 71.858002
80.494041 -48.281433 71.565002
78.732872 -49.240662 71.272095
76.972038 -50.199829 70.979294
66.886223 -54.633667 68.974884
64.72036 -54.751953 68.287064
62.962242 -55.710754 67.995056
61.20446 -56.669495 67.703125
59.447044 -57.628174 67.411301
57.689964 -58.586792 67.119598
48.502525 -62.539124 65.266983
46.340813 -62.657227 64.58049
44.586082 -63.61554 64.289474
42.831627 -64.573975 63.998581
41.077477 -65.532288 63.707718
39.323631 -66.490601 63.417007
37.570068 -67.448914 63.126358
27.119263 -71.038696 60.739334
25.367676 -71.996826 60.44931
23.210907 -72.114929 59.764481
21.459991 -73.073059 59.474625
19.70929 -74.031189 59.184921
17.958893 -74.989319 58.895264
7.5266418 -78.578857 56.514389
5.7779846 -79.536926 56.225296
4.0296021 -80.494995 55.936325
2.2814636 -81.453003 55.647415
0.53353882 -82.411133 55.358597
-9.0106201 -85.521973 53.126968
-12.033997 -86.119507 52.300278
-13.780029 -87.077637 52.0121
-15.525848 -88.035889 51.724014
-17.271454 -88.993896 51.435989
-20.292999 -89.591675 50.609955
-29.419281 -93.543457 48.777649
-31.566315 -93.662231 48.096298
-33.310089 -94.620605 47.808945
-35.05365 -95.578979 47.521683
-36.796997 -96.537476 47.234482
-38.942932 -96.656372 46.553543
-47.187469 -100.13055 44.868698
-50.202911 -100.72906 44.044968
-51.944855 -101.68787 43.758362
-53.686584 -102.64673 43.471848
-55.428192 -103.60559 43.185349
-58.040344 -105.04395 42.755768
-67.949982 -107.32104 40.144562
-69.690338 -108.28027 39.858612
-71.430695 -109.23962 39.572693
-73.170807 -110.1991 39.28688
-83.54184 -113.79797 36.929367
-86.551697 -114.39832 36.108063
-88.290894 -115.35822 35.822739
-90.029999 -116.31812 35.53743
-93.039063 -116.91882 34.716537
-103.40216 -120.52203 32.362991
-105.14056 -121.48267 32.078156
-106.87881 -122.44336 31.793365
-108.617 -123.40417 31.508621
-110.75507 -123.52563 30.831055
-121.1131 -127.1333 28.480591
-123.25031 -127.25531 27.803513
-124.98798 -128.21692 27.519196
-126.72562 -129.17859 27.234924
-128.93262 -131.46082 27.201309
-140.08536 -133.39484 24.06842
-141.82269 -134.3573 23.7845
-143.56006 -135.32001 23.500626
-145.29745 -136.28278 23.216766
-147.03482 -137.24573 22.932968
-157.78598 -140.02478 20.195267
-159.52332 -140.98853 19.911697
-161.26074 -141.95227 19.628189
-163.86691 -143.39819 19.202896
-173.74872 -145.70087 16.608856
-176.75302 -146.30835 15.791611
-178.4906 -147.27325 15.508362
-181.49493 -147.8811 14.691254
-183.23273 -148.84644 14.408035
-186.23712 -149.45477 13.59108
-187.97501 -150.42041 13.307953
-190.97949 -151.0293 12.491089
-192.71756 -151.99536 12.207993
-195.7222 -152.60468 11.391235
-197.46042 -153.57104 11.108231
-199.59601 -153.69757 10.43306
-201.33441 -154.66425 10.150085
-204.33936 -155.27454 9.3335114
-206.07794 -156.24152 9.0505524
-208.21381 -156.36877 8.3755188
-209.95258 -157.33606 8.0926056
-212.95798 -157.94733 7.2761688
-214.69696 -158.91504 6.9933014
-216.83301 -159.04285 6.3183746
-218.57227 -160.0108 6.0355377
-220.70853 -160.13892 5.3606415
-222.44797 -161.1073 5.0778198
263.55783 26.639465 110.75995
262.16736 24.822388 110.85587
260.35971 23.851135 110.55112
258.55261 22.880127 110.24649
256.74606 21.909302 109.94196
254.94008 20.938721 109.6376
253.1346 19.968262 109.33337
251.32968 18.997986 109.02921
249.52525 18.027954 108.72519
247.72142 17.058044 108.4213
245.91808 16.08844 108.11752
244.11526 15.118958 107.81387
242.72977 13.304382 107.91058
239.6106 12.695984 107.05527
237.80966 11.727112 106.75204
236.00922 10.758423 106.44891
234.20932 9.789917 106.14594
232.40994 8.8215942 105.84305
230.61108 7.8534546 105.54031
228.81276 6.885498 105.23767
227.43102 5.072937 105.33508
225.63362 4.1053467 105.03265
223.83676 3.1378784 104.73032
222.04044 2.1707153 104.42813
220.2446 1.2035522 104.12607
217.13614 0.59783936 103.2735
215.34171 -0.36895752 102.97177
213.54773 -1.3355103 102.67017
211.75426 -2.3018188 102.36865
209.54607 -2.4237671 101.66782
208.16884 -4.2341309 101.76605
206.37688 -5.2000122 101.46487
204.58546 -6.1657715 101.16388
202.79448 -7.1314087 100.86301
201.00404 -8.0968628 100.56223
199.21407 -9.0621338 100.26157
197.42464 -10.027283 99.961029
195.6356 -10.99231 99.660583
193.84715 -11.957153 99.360321
192.05916 -12.921814 99.06012
190.27165 -13.886414 98.76004
180.03508 -18.345398 96.712982
178.25078 -19.309021 96.413727
176.46696 -20.272644 96.114563
174.68358 -21.236084 95.815552
172.90068 -22.199341 95.516632
171.11824 -23.162537 95.217834
169.33626 -24.12561 94.919159
167.55479 -25.088562 94.620636
165.77376 -26.051331 94.322174
164.40627 -27.8573 94.422333
162.62608 -28.819885 94.124054
160.8463 -29.782288 93.825958
159.06703 -30.744568 93.527924
157.28813 -31.706726 93.22998
155.50975 -32.668884 92.93222
153.73177 -33.630737 92.634521
151.95427 -34.59259 92.336975
150.58971 -36.397522 92.437775
148.813 -37.359131 92.140411
147.03673 -38.320557 91.843109
145.26085 -39.281921 91.54599
143.07326 -39.400146 90.850861
141.71049 -41.204407 90.952057
139.93593 -42.165466 90.655243
138.16179 -43.126526 90.358551
136.38808 -44.087341 90.061951
134.61482 -45.048157 89.765472
132.84196 -46.00885 89.469147
131.0695 -46.969482 89.172882
128.00014 -47.567322 88.330902
126.22881 -48.52771 88.034943
124.45787 -49.488098 87.739166
122.68736 -50.448303 87.443451
120.91728 -51.408508 87.147858
119.14754 -52.368469 86.852325
117.37828 -53.328552 86.556946
115.60933 -54.288452 86.261688
113.84081 -55.248291 85.966522
112.07268 -56.208069 85.671448
110.30495 -57.167725 85.376495
107.24364 -57.764526 84.536896
105.47697 -58.72406 84.242249
103.71065 -59.683533 83.947708
101.94469 -60.642883 83.653244
100.17915 -61.602295 83.358932
98.413986 -62.561523 83.064697
96.649155 -63.520691 82.770554
94.88475 -64.479919 82.476547
91.829086 -65.076111 81.638672
90.065628 -66.035095 81.344955
88.302536 -66.99408 81.051315
86.53981 -67.953003 80.757797
84.77742 -68.911865 80.464401
83.015396 -69.870728 80.171066
73.801651 -73.821899 78.309326
72.041733 -74.780396 78.016632
69.873611 -74.89679 77.327454
68.114456 -75.855286 77.035004
66.355606 -76.813782 76.742645
64.597153 -77.772217 76.450409
61.551834 -78.367798 75.615814
59.794235 -79.326111 75.323807
58.036911 -80.284485 75.031937
56.279953 -81.242798 74.740143
54.52327 -82.20105 74.448471
51.481155 -82.796509 73.614868
49.725327 -83.754761 73.323441
47.562302 -83.871094 72.635986
45.807175 -84.829346 72.344788
44.052322 -85.787537 72.05368
42.297775 -86.745667 71.762665
32.245987 -91.173706 69.767853
30.086716 -91.2901 69.081635
28.334396 -92.248169 68.791336
26.582352 -93.20636 68.50116
24.830582 -94.16449 68.21106
22.672775 -94.280945 67.52536
20.921616 -95.239136 67.235504
19.1707 -96.197205 66.945679
17.420029 -97.155334 66.655945
15.669601 -98.113525 66.366302
13.513596 -98.230103 65.681244
11.763748 -99.188232 65.391785
9.6085358 -99.304932 64.707062
7.8592377 -100.26312 64.417786
6.1101532 -101.22131 64.128601
3.0816803 -101.81726 63.299728
1.3332672 -102.77545 63.010788
-0.41493225 -103.7337 62.721939
-2.1628876 -104.69202 62.433167
-3.9105988 -105.65033 62.14447
-6.9366608 -106.24646 61.316467
-8.6838226 -107.2049 61.027985
-10.43074 -108.16321 60.739594
-12.177475 -109.12164 60.451294
-13.923935 -110.08014 60.163071
-15.670273 -111.0387 59.874908
-25.611038 -113.3078 57.250778
-27.355942 -114.26648 56.963181
-29.100784 -115.22528 56.675613
-30.845383 -116.18408 56.388107
-32.589767 -117.14288 56.100708
-34.334061 -118.10187 55.813354
-44.262497 -120.37347 53.194138
-46.0056 -121.3327 52.907288
-47.748581 -122.29199 52.620483
-49.491348 -123.25128 52.333755
-59.879318 -126.8465 49.969421
-62.023514 -126.96503 49.288925
-63.765152 -127.92487 49.002747
-65.506607 -128.88477 48.716644
-67.24794 -129.84473 48.430618
-68.989212 -130.80481 48.144623
-70.730392 -131.76495 47.858704
-81.509628 -134.5235 45.10524
-83.249954 -135.48413 44.819733
-84.990219 -136.44489 44.534317
-86.730301 -137.40564 44.248947
-89.340439 -138.84711 43.820969
-100.51279 -140.76923 40.677887
-102.25214 -141.73077 40.39299
-103.99136 -142.69244 40.10817
-113.48782 -145.81976 37.897583
-116.49637 -146.42218 37.077332
-118.23514 -147.38446 36.792908
-119.97394 -148.34711 36.508514
-122.98199 -148.94989 35.688599
-132.47437 -152.0827 33.481049
-134.61237 -152.20477 32.803711
-136.3508 -153.16827 32.51976
-138.08923 -154.1319 32.235809
-140.22708 -154.25446 31.558685
-141.56613 -156.05963 31.66806
-152.72366 -157.99811 28.534943
-154.46198 -158.96277 28.251373
-157.46841 -159.56879 27.432999
-168.2254 -162.35413 24.695267
-170.36221 -162.47858 24.019089
-172.10077 -163.44452 23.735779
-175.10681 -164.05231 22.918076
-176.84543 -165.01849 22.634857
-179.85156 -165.62677 21.817291
-181.59021 -166.59344 21.53421
-183.72702 -166.71881 20.858307
-185.46588 -167.68567 20.575195
-188.47208 -168.29498 19.757904
-190.21112 -169.26215 19.474884
-193.21747 -169.87201 18.657684
-194.9566 -170.83966 18.374725
-197.09354 -170.96606 17.699097
-198.83282 -171.93402 17.416229
-201.83954 -172.54486 16.599243
-203.57913 -173.51318 16.316345
-205.71613 -173.6402 15.640854
-207.45587 -174.60883 15.358047
-210.46292 -175.22076 14.541229
-212.203 -176.18982 14.258453
-214.34024 -176.31757 13.583084
-216.08044 -177.28693 13.300385
270.65005 7.3307495 120.19077
268.84079 6.3605957 119.8851
267.03201 5.390625 119.57962
265.22382 4.4208374 119.27426
263.41614 3.4512329 118.96896
261.60901 2.4818726 118.66385
259.80234 1.5126953 118.3588
257.99628 0.54364014 118.05392
256.1907 -0.42523193 117.74918
254.3857 -1.3938599 117.44449
252.58116 -2.3623657 117.13998
250.77718 -3.3306885 116.83554
248.97374 -4.2988281 116.53128
247.17082 -5.2667847 116.22708
245.36844 -6.2346191 115.92307
243.56656 -7.2022705 115.61911
241.76518 -8.1697998 115.31534
239.96436 -9.1370239 115.01163
238.16405 -10.104126 114.7081
236.3642 -11.071106 114.40463
234.56491 -12.037903 114.10135
232.76613 -13.004517 113.79813
230.9679 -13.971008 113.49509
229.17014 -14.937317 113.19211
227.37288 -15.903442 112.88931
225.57617 -16.869507 112.58658
223.77997 -17.835327 112.28403
221.98424 -18.801025 111.9816
220.18903 -19.766602 111.67923
218.39435 -20.731995 111.37704
215.2865 -21.334167 110.52353
213.90973 -23.144775 110.62198
212.11679 -24.10968 110.32022
210.32431 -25.074402 110.01852
208.53235 -26.039001 109.71701
206.74088 -27.003418 109.41556
204.94992 -27.967712 109.11429
203.15939 -28.931885 108.81308
201.36938 -29.895935 108.51199
199.5799 -30.859802 108.21109
197.79083 -31.823547 107.91025
196.00226 -32.78717 107.60953
194.21423 -33.750671 107.30899
192.42661 -34.71405 107.00851
190.6395 -35.677307 106.70816
188.85284 -36.640442 106.40793
187.06668 -37.603394 106.10782
185.28101 -38.566284 105.80783
183.91101 -40.374023 105.90768
182.12616 -41.33667 105.60794
180.34177 -42.299133 105.30826
178.55786 -43.261475 105.00876
176.77441 -44.223694 104.70932
174.99142 -45.185852 104.41
173.20886 -46.147888 104.11081
170.53592 -47.590698 103.66226
169.1691 -49.397339 103.76285
167.38809 -50.358948 103.46402
165.60751 -51.320496 103.16531
163.82733 -52.28186 102.86673
162.04764 -53.243164 102.56827
160.26843 -54.204407 102.26999
158.48962 -55.165466 101.97171
156.71124 -56.126404 101.67361
154.93329 -57.087402 101.37564
153.15585 -58.048218 101.07779
151.37875 -59.008911 100.78
148.71393 -60.449829 100.33359
145.63663 -61.045898 99.488434
143.86136 -62.006287 99.191132
142.08652 -62.966675 98.894012
