# .PCD v0.7 - Point Cloud Data file format
VERSION 0.7
FIELDS x y z
SIZE 4 4 4
TYPE F F F
COUNT 1 1 1
WIDTH 1565
HEIGHT 1
VIEWPOINT 0 0 0 1 0 0 0
POINTS 1565
DATA ascii
-25.082237 41.695251 26.592468
-26.796135 40.656799 26.740234
-5.694603 52.317383 25.259796
-7.4112778 51.277893 25.407623
-9.1276779 50.238464 25.55545
-2.6002121 53.069519 25.331345
18.546669 64.746765 23.850266
16.826027 63.70575 23.998169
15.105721 62.664795 24.146088
13.38575 61.623962 24.293991
11.666023 60.583313 24.441864
9.9466019 59.542725 24.589752
45.777168 80.092957 21.849823
33.704384 72.793335 22.886139
31.981026 71.75116 23.034149
30.258003 70.709106 23.182114
28.535316 69.667114 23.330093
7.8872147 57.174622 25.104935
222.28424 186.55286 6.7775574
220.51166 185.48578 6.9283142
218.73965 184.41901 7.07901
216.9682 183.35254 7.2297058
65.304482 90.770935 20.513809
52.340462 82.937195 21.625183
50.613441 81.893433 21.7733
48.886818 80.849792 21.921417
44.571754 78.241455 22.291611
42.846352 77.198425 22.439667
41.121284 76.155457 22.587708
39.396584 75.112671 22.735748
37.672127 74.070129 22.883759
35.948097 73.027588 23.031769
215.72382 181.47223 7.6764069
213.95337 180.40643 7.8269653
212.1835 179.34094 7.9774933
210.41415 178.27576 8.128006
208.64539 177.21082 8.2784576
206.87717 176.14624 8.4288635
205.10947 175.08197 8.5792542
191.51297 165.76471 10.076767
189.75003 164.70306 10.226807
187.98764 163.64166 10.376816
186.22574 162.58063 10.526779
85.745979 101.99292 19.101944
71.88282 93.621094 20.288849
70.15168 92.5755 20.437103
68.420906 91.530029 20.585388
64.095741 88.917175 20.955948
62.36631 87.872375 21.104156
60.637245 86.827698 21.252335
58.908546 85.783142 21.400513
57.180244 84.738831 21.548676
55.452278 83.694702 21.696808
203.86838 173.20428 9.0254822
202.10172 172.14063 9.1757813
200.3356 171.07727 9.3260193
198.57001 170.01416 9.4762421
196.8049 168.95142 9.6264038
195.04037 167.88885 9.7765656
193.27643 166.82666 9.9266815
184.98981 160.70697 10.97229
183.22891 159.64648 11.122177
181.4686 158.58624 11.272034
179.70874 157.52637 11.421844
177.9494 156.46674 11.57164
176.19064 155.40729 11.72139
174.43231 154.34821 11.871109
172.67459 153.28937 12.020798
170.9173 152.23083 12.170456
169.16058 151.17255 12.320099
165.64865 149.0567 12.619232
163.8934 147.99921 12.768784
162.1387 146.94196 12.918289
160.38452 145.88495 13.06778
102.76478 111.14087 17.98526
101.02644 110.09186 18.133865
99.288551 109.04303 18.282455
97.551064 107.99451 18.431
95.814003 106.94611 18.579529
94.077431 105.89789 18.728058
92.341164 104.84998 18.876541
90.605415 103.80219 19.025024
88.869972 102.75458 19.173477
84.533363 100.13647 19.544525
82.799385 99.0896 19.692932
81.065865 98.042847 19.841293
79.33271 96.996399 19.989624
77.599953 95.950073 20.13797
75.867592 94.903931 20.286285
74.135628 93.857971 20.434555
167.92911 149.30243 12.764984
159.15521 144.01654 13.51236
157.40195 142.96008 13.661774
155.64917 141.90393 13.811142
153.89688 140.84808 13.960449
152.14511 139.79236 14.109756
150.39383 138.737 14.259033
147.76779 137.15436 14.48291
146.0177 136.09961 14.632111
144.26813 135.0451 14.781281
142.51904 133.99078 14.930435
140.77039 132.93671 15.079575
139.02225 131.883 15.228653
137.27454 130.82941 15.377731
135.52737 129.77612 15.526779
133.78064 128.72302 15.675797
132.03442 127.67017 15.824799
130.2886 126.61755 15.973755
128.5433 125.56519 16.122696
126.79847 124.51306 16.271622
125.05402 123.46112 16.420502
123.3101 122.40942 16.569366
121.56663 121.35797 16.718231
119.82359 120.30682 16.867035
118.08103 119.25574 17.015823
116.33891 118.20502 17.164597
114.59724 117.15442 17.313339
112.85603 116.10406 17.462067
111.11524 115.05402 17.610764
109.37489 114.00403 17.75946
107.63499 112.95435 17.908112
105.89552 111.90491 18.056732
-237.25131 -71.228577 41.224777
-238.95895 -72.26947 41.373886
-233.32092 -69.954895 41.219696
-235.02832 -70.995422 41.368729
-229.39108 -68.681396 41.214661
-231.09824 -69.721863 41.363663
-224.60831 -66.888367 41.135223
-226.31522 -67.928528 41.284195
-219.82614 -65.095886 41.055908
-221.53278 -66.135803 41.204819
-215.04465 -63.304016 40.9767
-216.75104 -64.343689 41.125565
-210.26373 -61.512695 40.897629
-211.96979 -62.552063 41.046432
-205.48331 -59.721863 40.818634
-207.18921 -60.761047 40.967407
-199.85052 -57.412109 40.665405
-201.55618 -58.450989 40.814133
-203.26199 -59.490051 40.96286
-194.21835 -55.103149 40.512375
-195.92383 -56.141785 40.661026
-197.62933 -57.180603 40.809692
-190.29199 -53.833313 40.508072
-191.99731 -54.871765 40.656693
-176.47183 -47.661255 39.979935
-178.17694 -48.699158 40.128418
-179.88199 -49.737244 40.276901
-155.65411 -39.476135 39.519531
-157.35901 -40.513489 39.667816
-159.0639 -41.550842 39.816147
-160.76886 -42.588196 39.964447
-162.47379 -43.62561 40.112778
-165.03119 -45.181946 40.335327
-140.98199 -32.793518 38.919617
-142.68707 -33.830383 39.06778
-144.39212 -34.867371 39.215958
-146.0972 -35.904358 39.364166
-137.05557 -31.526733 38.91626
-138.76074 -32.563599 39.064407
-124.08564 -25.883545 38.465561
-125.79108 -26.920227 38.613617
-127.49656 -27.956848 38.761673
-114.18769 -20.98938 37.944565
-115.89362 -22.02594 38.092514
-117.59943 -23.062439 38.240494
-119.30515 -24.098999 38.388504
-121.01081 -25.135559 38.536499
-106.84678 -17.65033 37.645752
-108.55302 -18.686829 37.793686
-110.2591 -19.723267 37.941605
-111.9651 -20.759827 38.089569
-97.797554 -13.275024 37.199326
-99.50425 -14.311462 37.347183
-101.21082 -15.347961 37.495056
-102.9173 -16.384338 37.642929
-104.6237 -17.420837 37.790817
-94.720345 -12.527283 37.270508
-86.520912 -8.6702271 36.898346
-88.22831 -9.706604 37.046158
-89.935616 -10.743103 37.193954
-91.642769 -11.779602 37.341782
-83.44236 -7.9224243 36.969681
-69.259163 -0.43707275 36.080765
-70.967873 -1.4736938 36.2285
-72.67646 -2.5103149 36.376221
-74.384926 -3.546936 36.523956
-65.323647 0.8291626 36.078445
-67.032692 -0.2074585 36.226151
-51.127235 8.3165894 35.19017
-52.837685 7.2796021 35.337845
-54.54789 6.2427368 35.485489
-56.257973 5.2058716 35.633133
-47.187721 9.5834351 35.188065
-48.898598 8.5464478 35.335693
-32.975655 17.074219 34.300278
-34.688118 16.036804 34.447906
-36.400307 14.999451 34.595505
-38.112312 13.962097 34.743149
-28.174934 18.860779 34.224548
-29.887947 17.823181 34.372147
-2.7909393 33.106384 32.377808
-12.228622 27.394714 33.189575
-13.94371 26.356445 33.337158
-15.658615 25.318298 33.484726
-17.373276 24.280212 33.632324
-19.087662 23.242249 33.779922
2.8796844 35.415344 32.2285
1.1623383 34.376404 32.376068
-0.55473328 33.337524 32.523666
-3.9881134 31.260071 32.818832
-5.7043915 30.221497 32.966415
-7.4204865 29.183044 33.113998
-9.1362457 28.144592 33.261581
16.288498 42.402832 31.414978
13.709396 40.843262 31.636414
11.990341 39.803711 31.784012
10.271561 38.764282 31.93161
8.5531158 37.724976 32.079208
6.8348541 36.685791 32.226776
5.1168976 35.646667 32.374374
22.829208 45.234558 31.19194
21.108627 44.194519 31.339554
19.388351 43.154602 31.487167
32.818283 50.148865 30.673645
31.095993 49.108154 30.821289
29.373978 48.067566 30.968918
27.652328 47.027161 31.116547
25.930954 45.986816 31.264175
47.12941 57.670593 29.786087
45.404434 56.628845 29.933777
43.679794 55.58728 30.081451
41.95549 54.545837 30.229126
40.231552 53.504517 30.376816
38.507858 52.463318 30.52446
36.784561 51.422302 30.672104
35.061539 50.381409 30.819748
74.433487 73.026794 27.789719
64.055588 66.765076 28.676575
62.327194 65.722107 28.824341
60.599228 64.679138 28.972092
58.871597 63.636414 29.119858
57.144333 62.59375 29.267593
231.13666 167.32336 14.474442
229.3633 166.25848 14.624451
94.885941 84.235657 26.382858
83.614487 77.440063 27.344513
81.881912 76.395264 27.492416
80.149734 75.350586 27.640289
78.417923 74.306213 27.788147
76.686539 73.261902 27.935989
73.224869 71.173767 28.231659
71.494614 70.129944 28.379471
69.764694 69.086304 28.527267
68.035172 68.042786 28.675064
66.306046 66.999451 28.82283
228.11856 164.37964 15.070679
226.34622 163.31543 15.220581
224.57445 162.25153 15.370453
222.80325 161.18793 15.520279
221.03259 160.12463 15.67009
219.26248 159.06152 15.819855
217.4929 157.99878 15.969589
215.72389 156.93634 16.119293
155.54124 119.63373 21.560806
135.43697 107.53625 23.269012
115.39394 95.467834 24.97435
111.9142 93.371704 25.270676
110.17497 92.324036 25.418793
108.4362 91.276489 25.566925
106.69783 90.229187 25.714996
104.95985 89.182007 25.863083
103.22237 88.135071 26.011139
101.48528 87.088318 26.15918
99.748642 86.041687 26.307236
98.012314 84.9953 26.455231
93.673477 82.380188 26.82518
91.938644 81.334412 26.973145
90.204208 80.288879 27.121078
88.470169 79.24353 27.268982
86.736557 78.198303 27.416916
214.48296 155.06049 16.565002
212.71495 153.9986 16.714615
210.94748 152.93707 16.864197
209.18054 151.87579 17.013733
207.41417 150.81476 17.163239
205.64833 149.75403 17.312729
203.88303 148.69354 17.462189
202.11826 147.63336 17.611618
200.35402 146.57349 17.761002
198.59032 145.51379 17.910355
196.82713 144.45447 18.059677
195.06447 143.39539 18.208969
193.3024 142.33649 18.358261
191.54079 141.27789 18.507507
177.46678 132.81879 19.700394
154.3156 117.76923 22.004578
152.56529 116.71637 22.153183
150.81551 115.66376 22.301788
149.06618 114.61133 22.450363
147.31731 113.55914 22.598892
145.56895 112.50714 22.747421
143.82106 111.45551 22.895905
142.07365 110.40399 23.044388
140.32668 109.35272 23.192841
138.58022 108.30164 23.341278
134.21599 105.67499 23.71225
132.47118 104.62469 23.860611
130.72676 103.57465 24.008926
128.9828 102.52484 24.157242
127.23933 101.47516 24.305542
125.49629 100.42572 24.453812
123.75371 99.376526 24.602066
122.01158 98.327576 24.750305
120.26985 97.278748 24.898514
118.52861 96.230164 25.046707
114.17738 93.609558 25.417099
190.30626 139.40698 18.952347
188.54564 138.34906 19.101517
186.78557 137.29132 19.250656
185.02597 136.23383 19.399734
183.26692 135.17664 19.548813
181.50839 134.11969 19.697845
179.75034 133.06305 19.846863
176.23582 130.95044 20.144806
174.47931 129.89453 20.293732
172.72336 128.83887 20.442642
170.96786 127.78345 20.591537
169.21288 126.72827 20.740387
167.45839 125.6734 20.889191
165.70439 124.61871 21.037994
163.95094 123.56427 21.186768
162.19795 122.51007 21.335526
160.44548 121.45612 21.484253
158.69344 120.4024 21.632935
-231.82025 -88.89563 48.121033
-233.52835 -89.9375 48.270416
-227.03513 -87.099731 48.041016
-228.74289 -88.141357 48.190308
-223.10452 -85.825256 48.035706
-224.81201 -86.866577 48.184967
-218.32068 -84.030701 47.955933
-220.02795 -85.071777 48.105133
-214.39102 -82.75708 47.950821
-216.09799 -83.797974 48.099991
-210.46173 -81.484009 47.945831
-212.16852 -82.524536 48.094925
-204.82623 -79.170898 47.79187
-206.53271 -80.211182 47.940903
-208.23938 -81.251587 48.089981
-200.04468 -77.378784 47.712585
-201.75098 -78.418823 47.861572
-195.26352 -75.587158 47.633453
-196.96964 -76.626953 47.782379
-190.4827 -73.796204 47.554459
-192.18872 -74.835693 47.703308
-184.84946 -71.486084 47.401169
-186.55524 -72.52533 47.549973
-188.26105 -73.564697 47.698792
-181.77496 -70.735352 47.471191
-166.24628 -63.521973 46.793915
-167.95166 -64.560364 46.94252
-169.6571 -65.598877 47.09111
-171.36255 -66.637451 47.239746
-164.02481 -63.291382 46.938522
-149.34979 -56.602844 46.337128
-151.05508 -57.640625 46.485504
-152.76044 -58.678467 46.633926
-154.46579 -59.716431 46.782379
-146.27542 -55.854004 46.40773
-131.59894 -49.169861 45.8078
-133.3045 -50.207092 45.956009
-135.01001 -51.244385 46.104248
-136.71548 -52.281738 46.252502
-129.37674 -48.940247 45.952774
-112.13752 -40.704102 45.132126
-113.84357 -41.740967 45.280167
-115.54963 -42.777832 45.428192
-117.25565 -43.814697 45.576279
-118.96162 -44.851685 45.724365
-97.451424 -34.025757 44.534851
-99.158241 -35.062378 44.682739
-100.86491 -36.098999 44.830673
-102.57151 -37.135681 44.978622
-88.398628 -29.650452 44.088745
-90.105934 -30.687012 44.236572
-91.813118 -31.723511 44.38443
-93.52021 -32.760132 44.532288
-95.227211 -33.796753 44.680176
-80.196754 -25.793701 43.716904
-81.90461 -26.8302 43.864685
-83.612343 -27.866699 44.012451
-85.319923 -28.903259 44.160263
-71.992165 -21.937012 43.345367
-73.700539 -22.973511 43.493073
-75.408852 -24.01001 43.640808
-77.117043 -25.046509 43.788528
-68.056892 -20.671631 43.343262
-69.765633 -21.70813 43.490936
-59.847572 -16.814758 42.972107
-61.557045 -17.851318 43.119751
-63.266273 -18.887939 43.26741
-64.975441 -19.924438 43.415039
-49.924416 -11.921021 42.453644
-51.634773 -12.957703 42.601227
-53.344948 -13.994263 42.74881
-55.05497 -15.030884 42.896408
-56.764839 -16.067505 43.044006
-41.707039 -8.0633545 42.083023
-43.418159 -9.1000977 42.23056
-45.129189 -10.136963 42.378113
-46.840004 -11.173645 42.52565
-37.765236 -6.7974243 42.08139
-39.476784 -7.8342896 42.228928
-23.546089 0.69104004 41.195007
-25.259377 -0.34613037 41.342453
-26.972389 -1.3833008 41.489929
-28.685188 -2.4204102 41.637405
-12.742439 6.1074219 40.603897
-14.4571 5.0699463 40.751343
-16.171486 4.0324707 40.898758
-17.885628 2.9949951 41.046188
-19.599586 1.9576416 41.193634
-21.313301 0.92041016 41.34108
-4.5038834 9.9689941 40.234146
-6.2196121 8.9311523 40.381546
-7.9350967 7.8934326 40.528976
-9.6503372 6.8557739 40.676361
6.3160629 15.389038 39.643494
4.5987473 14.350891 39.790863
2.8817368 13.312744 39.938263
1.1649094 12.274658 40.085632
-0.55164337 11.236694 40.233017
-2.2678909 10.19873 40.380402
24.885094 25.487183 38.389877
21.444817 23.408997 38.684616
19.725121 22.370117 38.83197
18.005699 21.331238 38.97934
16.286613 20.29248 39.126678
14.567741 19.253784 39.274048
12.849205 18.21521 39.421432
11.130882 17.176758 39.568787
9.4128952 16.138306 39.716156
31.429405 28.316345 38.167969
29.708061 27.276917 38.315308
27.987022 26.237549 38.462677
23.685661 23.639587 38.83107
41.423882 33.226624 37.651398
39.700737 32.186646 37.798737
37.977959 31.146667 37.946121
36.255455 30.106873 38.093475
34.533287 29.067139 38.240829
63.512901 45.428101 36.103134
51.428642 38.140015 37.134888
49.703697 37.099365 37.282257
47.979057 36.058838 37.429626
46.254723 35.018433 37.576996
44.530754 33.978149 37.724335
70.084038 48.265381 35.881363
68.355339 47.223389 36.028778
66.627037 46.181519 36.176208
62.307793 43.577454 36.544693
60.580742 42.536072 36.692093
58.854027 41.494873 36.839462
57.127617 40.453735 36.986847
55.401604 39.412659 37.134216
53.675896 38.371826 37.281586
83.583855 55.275513 35.069809
81.852348 54.232422 35.21727
80.121239 53.189514 35.364746
78.390465 52.146729 35.512192
76.660088 51.104187 35.659622
74.930077 50.061707 35.807053
73.200401 49.019348 35.954483
104.0483 66.472229 33.667786
102.31216 65.427368 33.815353
100.57647 64.382568 33.962921
98.841118 63.338135 34.110458
97.106224 62.293701 34.257996
95.371727 61.249451 34.405518
93.637596 60.205444 34.55304
91.903862 59.161499 34.700531
90.170586 58.117798 34.848038
88.437614 57.074219 34.995514
86.705101 56.030823 35.143005
240.90631 148.62823 22.098648
239.13184 147.56537 22.247955
237.35797 146.50275 22.397232
235.58459 145.44043 22.546478
124.56872 77.690796 32.264557
121.08697 75.597168 32.559952
119.34679 74.550537 32.707642
117.60702 73.504272 32.855301
115.8677 72.458008 33.00296
114.12878 71.411987 33.150604
112.39028 70.366211 33.298218
110.65221 69.320557 33.445831
108.91454 68.275085 33.59343
107.17733 67.229797 33.741013
234.34116 143.56415 22.992065
232.56882 142.50244 23.141205
230.79706 141.44098 23.290329
229.02579 140.37988 23.439407
227.25513 139.31897 23.58847
225.48499 138.25842 23.737488
223.71539 137.19812 23.88649
221.94638 136.13806 24.035461
220.17783 135.07825 24.184402
218.40985 134.0188 24.333313
216.64243 132.95953 24.482178
132.0625 81.069702 31.968475
130.31961 80.022095 32.116226
128.57715 78.974609 32.263977
126.83511 77.927368 32.411682
123.35238 75.833435 32.707077
215.40414 131.08704 24.927155
213.63773 130.02844 25.075928
211.87183 128.97003 25.224686
210.10648 127.91193 25.373444
208.34164 126.85406 25.522156
206.57736 125.79645 25.670837
204.81363 124.73914 25.819504
203.05038 123.68201 25.96814
201.28766 122.62518 26.116745
199.52545 121.5686 26.26532
197.76382 120.51233 26.413895
196.00269 119.45624 26.562424
194.24203 118.40045 26.710922
192.48199 117.34485 26.859406
190.72238 116.28955 27.007858
188.96329 115.2345 27.156296
179.29761 109.43591 27.972229
175.78656 107.3291 28.268768
172.27759 105.22327 28.565216
170.5238 104.17065 28.713394
168.77054 103.11829 28.861572
167.01773 102.06628 29.009705
157.38617 96.28363 29.824127
155.63657 95.232971 29.972137
153.88745 94.182495 30.120132
152.13879 93.132324 30.268112
150.39059 92.082275 30.416077
148.64285 91.032471 30.563995
146.8956 89.982849 30.711914
137.29395 84.213867 31.525116
135.54968 83.165649 31.672928
133.80588 82.117615 31.820709
178.06888 107.57025 28.416031
174.55872 105.46405 28.712494
-224.67981 -105.53851 54.873444
-220.74762 -104.26239 54.867813
-222.45584 -105.30499 55.01741
-215.96207 -102.46564 54.787537
-217.66992 -103.50787 54.937057
-212.03088 -101.19049 54.782135
-213.73862 -102.2326 54.93161
-207.24652 -99.395081 54.702148
-208.95392 -100.43683 54.851532
-203.31622 -98.121033 54.69696
-205.02344 -99.162537 54.846298
-198.53278 -96.326843 54.617249
-200.23978 -97.367981 54.76651
-194.60321 -95.053711 54.612274
-196.31006 -96.094727 54.761505
-189.82059 -93.260681 54.532852
-191.52719 -94.301453 54.682007
-183.332 -90.42804 54.304535
-185.03833 -91.468323 54.453583
-186.74484 -92.508789 54.602661
-179.40335 -89.156616 54.299957
-181.10962 -90.196716 54.448975
-174.6217 -87.36554 54.221008
-176.32791 -88.405457 54.36998
-172.39944 -87.134583 54.365585
-157.71918 -80.437317 53.76207
-159.42502 -81.476318 53.910797
-161.13089 -82.515442 54.059525
-162.83679 -83.554626 54.208282
-150.37939 -77.090759 53.460892
-152.08514 -78.129333 53.609497
-153.79099 -79.168152 53.758163
-155.49686 -80.20697 53.906815
-148.15698 -76.860657 53.605743
-139.96411 -72.996521 53.230804
-141.66989 -74.034729 53.379288
-143.37579 -75.07312 53.527817
-145.08163 -76.111511 53.676346
-132.62378 -69.65271 52.930511
-134.32971 -70.690735 53.078903
-136.03558 -71.72876 53.227341
-137.74142 -72.766846 53.375778
-125.28289 -66.309875 52.630569
-126.98888 -67.347656 52.7789
-128.69492 -68.385437 52.927231
-130.40091 -69.423279 53.075592
-122.20666 -65.56189 52.70163
-106.66805 -58.360962 52.029022
-108.37469 -59.398193 52.177155
-110.08117 -60.435364 52.325256
-111.78768 -61.472717 52.473389
-101.88372 -56.576599 51.952362
-103.59057 -57.613647 52.100403
-87.19088 -49.897827 51.355637
-88.898399 -50.934631 51.50354
-90.605766 -51.971558 51.651474
-92.313103 -53.008362 51.799393
-84.111412 -49.151062 51.427368
-70.781944 -42.184204 50.612427
-72.490501 -43.220764 50.760178
-74.198936 -44.257446 50.907928
-75.907249 -45.294128 51.055695
-62.573265 -38.32782 50.241348
-64.282433 -39.36438 50.389023
-65.991478 -40.401062 50.536713
-67.700401 -41.437622 50.684418
-58.635765 -37.063049 50.23967
-60.345299 -38.099609 50.387299
-50.422203 -33.206787 49.869095
-52.132408 -34.243408 50.016678
-53.842491 -35.279968 50.164276
-55.552391 -36.316589 50.311874
-40.493889 -28.313782 49.351379
-42.20504 -29.350403 49.498871
-43.916008 -30.387146 49.646378
-45.626854 -31.423767 49.7939
-47.337486 -32.460388 49.941437
-32.271843 -24.457214 48.981522
-33.98391 -25.493896 49.128952
-35.695763 -26.530701 49.276398
-37.407402 -27.567322 49.423859
-22.332489 -19.563293 48.464569
-24.045593 -20.600159 48.611938
-25.758606 -21.637024 48.759323
-27.471336 -22.673767 48.906708
-29.18383 -23.710571 49.054123
-14.100616 -15.705505 48.095322
-15.814789 -16.742615 48.242645
-17.528687 -17.779602 48.389984
-19.242432 -18.816528 48.537308
-3.2906189 -10.291199 47.505432
-5.0062256 -11.32843 47.652679
-6.7215271 -12.365662 47.799957
-8.436615 -13.402893 47.94725
-10.151398 -14.440002 48.094543
-11.866028 -15.477173 48.241852
4.953064 -6.4314575 47.136734
3.2363281 -7.4689941 47.283951
1.519928 -8.5065308 47.431198
-0.19625854 -9.5438843 47.578445
8.049469 -5.6838989 47.209869
24.036713 2.8485107 46.17926
22.317169 1.8103027 46.326416
20.5979 0.77215576 46.473587
18.878906 -0.26593018 46.620758
17.160156 -1.303894 46.767914
34.881958 8.2702637 45.590546
33.160645 7.2315674 45.737671
31.439545 6.1929321 45.884796
29.718842 5.15448 46.031921
27.998352 4.1160889 46.179062
26.278198 3.0776978 46.326202
44.876984 13.175354 45.075592
43.1539 12.136169 45.222702
41.431152 11.097046 45.369812
39.70871 10.058105 45.516907
37.986572 9.0192261 45.664017
60.058868 21.202759 44.119568
58.332977 20.162781 44.266647
56.607452 19.122864 44.413727
54.882233 18.083069 44.560822
66.625244 24.034119 43.899124
64.898163 22.993713 44.046204
63.171356 21.95343 44.193298
84.43988 33.634888 42.722687
82.709106 32.593262 42.869781
80.978699 31.551758 43.016891
79.248627 30.510437 43.163971
77.519012 29.469177 43.311066
75.789703 28.428101 43.45816
112.70963 49.509766 40.663055
99.691254 41.684021 41.7668
97.957184 40.641235 41.91394
96.22345 39.598572 42.061066
94.490143 38.556091 42.208176
111.49759 47.655273 41.105087
109.76083 46.611572 41.252258
108.02444 45.567993 41.399414
106.28848 44.524536 41.54657
104.55298 43.481262 41.69371
102.81781 42.438171 41.840851
119.31812 52.354187 40.442719
117.57947 51.309753 40.589935
115.84131 50.265381 40.737137
250.17737 130.74506 29.430145
248.40179 129.68396 29.578796
238.29062 122.50885 30.766647
236.51883 121.44971 30.91507
142.48587 65.136963 38.823257
139.86948 63.566956 39.044235
138.12579 62.520508 39.191544
136.38257 61.474182 39.338867
134.63974 60.428101 39.48616
132.89737 59.382141 39.633438
131.15549 58.336487 39.780701
129.41403 57.290833 39.927979
127.67294 56.245544 40.075195
125.93234 55.200317 40.222427
124.19217 54.155334 40.369675
122.45236 53.110413 40.516876
247.15781 127.80841 30.024109
245.38327 126.74799 30.172668
243.60925 125.68781 30.321198
241.83582 124.62787 30.469696
240.06296 123.56824 30.618195
235.27814 119.5766 31.35997
233.50735 118.51801 31.508316
231.73709 117.45978 31.656631
229.96744 116.40173 31.804916
228.19827 115.34399 31.953217
226.42964 114.2865 32.10144
224.66159 113.22931 32.249649
222.89406 112.1723 32.397842
221.12706 111.1156 32.546005
219.36061 110.05908 32.694153
217.59465 109.00287 32.84227
181.50797 87.403076 35.87381
179.75311 86.351929 36.021454
177.99875 85.300964 36.169113
176.24484 84.250183 36.316727
174.49146 83.199707 36.464325
171.8623 81.624329 36.685715
170.11017 80.57428 36.833267
168.35849 79.524597 36.980835
166.60727 78.475037 37.128357
164.85657 77.425598 37.275864
163.10632 76.376526 37.423355
161.3566 75.327576 37.570847
159.6073 74.278809 37.718307
157.85849 73.230225 37.865753
156.11014 72.181946 38.013199
153.48849 70.609863 38.234299
151.7413 69.561951 38.381699
149.9946 68.514282 38.529099
148.24832 67.466858 38.676453
146.5025 66.419617 38.823807
144.75723 65.372498 38.971146
216.35896 107.13336 33.286575
214.59402 106.07758 33.434631
212.82962 105.02216 33.582657
211.06573 103.96704 33.730652
192.57626 92.902039 35.283295
190.81834 91.849609 35.431061
189.06088 90.797302 35.578796
187.30396 89.7453 35.726501
185.54752 88.693542 35.874207
183.79156 87.641968 36.021881
209.83186 102.09869 34.174759
208.06894 101.04407 34.322693
206.30655 99.989685 34.470612
204.54465 98.935608 34.618454
202.78326 97.881653 34.766342
201.02246 96.827942 34.914169
199.26213 95.774475 35.062012
197.5023 94.721252 35.209808
195.74304 93.668274 35.35759
-213.60312 -120.92365 61.62616
-215.31177 -121.96729 61.776001
-209.67035 -119.64691 61.620407
-211.37875 -120.69037 61.770187
-204.88388 -117.84918 61.539932
-206.59198 -118.89227 61.689651
-200.952 -116.57367 61.534439
-202.65988 -117.61639 61.684097
-196.1666 -114.77728 61.454269
-197.87424 -115.81976 61.603867
-191.38165 -112.98175 61.374298
-193.08908 -114.02386 61.523788
-186.59714 -111.18689 61.29451
-188.30444 -112.2287 61.443924
-182.66666 -109.91351 61.289551
-184.37375 -110.95514 61.438919
-177.02933 -107.59937 61.135422
-178.7363 -108.64063 61.284714
-180.44327 -109.68201 61.434021
-171.39255 -105.28619 60.981567
-173.09924 -106.32709 61.130753
-174.80609 -107.3681 61.279999
-168.31601 -104.53491 61.051651
-150.55414 -97.082458 60.517502
-152.26053 -98.122192 60.666412
-153.96695 -99.162048 60.815323
-155.6734 -100.20197 60.964249
-157.37991 -101.24207 61.113235
-148.33087 -96.852478 60.662445
-132.79239 -89.638245 59.985855
-134.49881 -90.677185 60.134491
-136.2052 -91.716125 60.283142
-137.91159 -92.755188 60.431839
-115.02795 -82.201111 59.456619
-116.73464 -83.239319 59.605011
-118.44134 -84.277588 59.753403
-120.14797 -85.315857 59.90184
-121.85452 -86.354309 60.050293
-106.8294 -78.339661 59.083023
-108.53634 -79.377441 59.231277
-110.24328 -80.415466 59.379593
-111.95004 -81.45343 59.527908
-104.60452 -78.111206 59.228607
-96.404076 -74.251038 58.855606
-98.111412 -75.288696 59.003769
-99.818657 -76.326294 59.151917
-101.52587 -77.364014 59.300095
-88.201836 -70.392029 58.483109
-89.909508 -71.429382 58.631149
-91.617149 -72.466858 58.779221
-93.324699 -73.504211 58.927292
-80.851616 -67.05249 58.185059
-82.559746 -68.089661 58.333008
-84.267693 -69.126892 58.480972
-85.97567 -70.164124 58.628967
-72.645164 -63.195007 57.813446
-74.353813 -64.232056 57.961288
-76.062279 -65.269104 58.109177
-77.770592 -66.306091 58.25705
-68.708733 -61.93042 57.811707
-70.417595 -62.967346 57.959503
-60.498283 -58.073792 57.44072
-62.207726 -59.110596 57.588455
-63.917046 -60.147522 57.736191
-65.626244 -61.184387 57.883957
-57.414635 -57.327881 57.513138
-44.067802 -50.361755 56.700058
-45.778587 -51.398438 56.84761
-47.48925 -52.43512 56.995163
-49.199791 -53.471863 57.142746
-39.270226 -48.579346 56.625275
-40.981499 -49.616028 56.772781
-22.820305 -40.867737 55.886642
-24.533287 -41.90448 56.033981
-26.246056 -42.941223 56.181351
-27.958611 -43.977966 56.32872
-29.671074 -45.014709 56.47612
-20.586662 -40.640442 56.033386
-4.6376266 -32.118469 55.002243
-6.3527451 -33.155396 55.149445
-8.0677109 -34.192322 55.296646
-9.7823715 -35.229187 55.443863
-11.496819 -36.266052 55.59111
5.3209915 -27.224243 54.487076
3.6045609 -28.261414 54.634201
1.8883133 -29.298401 54.781326
0.17234039 -30.33551 54.928482
-1.5433578 -31.372559 55.075653
13.569649 -23.366394 54.119385
11.852119 -24.403625 54.266479
10.134773 -25.440918 54.413559
8.4176407 -26.478088 54.560638
24.402718 -17.951172 53.531479
22.683571 -18.988831 53.678513
20.964607 -20.026428 53.825516
19.245949 -21.063904 53.972549
17.527534 -22.101379 54.119598
15.809364 -23.138672 54.266632
32.665047 -14.091064 53.164459
30.944527 -15.128967 53.311417
29.224281 -16.166748 53.458389
27.504372 -17.204468 53.605377
43.516975 -8.6723633 52.577286
41.794655 -9.7105713 52.724197
40.07267 -10.74884 52.871124
38.35099 -11.786987 53.018051
36.629555 -12.825012 53.164978
34.908424 -13.863037 53.311935
62.143318 1.4244385 51.329605
53.518379 -3.7704468 52.063919
51.794319 -4.8091431 52.2108
50.070595 -5.8477783 52.357666
48.347176 -6.8862915 52.504562
46.624062 -7.9248047 52.651443
68.709633 4.2518921 51.110306
66.982765 3.2124634 51.257156
65.256264 2.1730957 51.403976
60.941353 -0.42492676 51.771088
59.215981 -1.4639893 51.917923
57.490913 -2.5029907 52.064774
55.766182 -3.5418091 52.211639
75.280647 7.0805054 50.891159
73.552498 6.0406494 51.037964
71.824715 5.0009155 51.184799
89.643288 14.592346 50.011536
87.912239 13.551697 50.15834
86.181557 12.511047 50.305145
84.451241 11.470642 50.451935
93.63166 15.863342 50.012878
91.899788 14.822449 50.159653
114.1016 27.031982 48.619858
112.36521 25.989624 48.766632
110.62922 24.947327 48.913437
108.89362 23.905212 49.060226
107.15842 22.863281 49.207016
105.42362 21.82135 49.353806
103.68922 20.779663 49.50058
142.46756 42.91925 46.565765
132.88535 37.174622 47.373489
131.1445 36.130676 47.52034
129.40414 35.086914 47.66716
127.66416 34.043274 47.81398
125.92463 32.999817 47.9608
124.18552 31.956482 48.10762
163.07492 54.135315 45.171677
160.45236 52.565063 45.392136
158.70453 51.518494 45.539078
156.95724 50.472107 45.686035
155.21039 49.425903 45.832977
152.59091 47.856995 46.053329
150.84518 46.811157 46.200256
149.09991 45.765625 46.347168
147.35507 44.720276 46.494049
145.61069 43.674988 46.640915
141.25168 41.062683 47.008087
139.50882 40.018005 47.154938
137.76639 38.973511 47.301773
136.02444 37.92926 47.448608
260.01199 112.04095 37.063339
258.2352 110.98169 37.211319
256.45895 109.92267 37.359299
254.68326 108.86389 37.507217
252.90811 107.80542 37.655136
251.13351 106.74713 37.80304
196.91699 73.249512 42.672882
195.15924 72.198853 42.820114
191.64514 70.098328 43.114456
189.88889 69.04834 43.261627
188.13309 67.998596 43.408783
186.37784 66.948914 43.555908
176.73254 61.180054 44.364883
174.98041 60.131836 44.511932
173.22876 59.083801 44.658951
171.47763 58.03595 44.805969
169.72693 56.988342 44.952972
167.97678 55.940857 45.09996
166.22699 54.893555 45.246948
249.89182 104.87421 38.247787
248.11819 103.81653 38.395599
246.34518 102.75916 38.543396
244.57269 101.70197 38.691147
242.80078 100.64502 38.838913
241.02933 99.58844 38.986618
239.25848 98.531982 39.134323
237.48819 97.47583 39.281982
235.71838 96.419922 39.429626
233.94919 95.364258 39.577271
232.18051 94.308777 39.724899
230.41229 93.253662 39.872467
228.64471 92.198669 40.020065
226.87759 91.143921 40.167587
225.11102 90.089539 40.315109
211.52805 80.848572 41.790909
209.76611 79.796265 41.938248
208.0047 78.744202 42.085541
206.2438 77.692322 42.232834
193.93167 70.335388 43.263367
223.87616 88.221252 40.759109
222.11057 87.167358 40.90657
220.34549 86.113586 41.054016
218.58096 85.06012 41.201431
216.81693 84.006958 41.348816
215.05347 82.953918 41.496216
213.2905 81.901184 41.64357
-205.5997 -137.08472 68.316528
-207.30875 -138.12946 68.466644
-201.66565 -135.80713 68.310608
-203.37451 -136.8515 68.460663
-197.73196 -134.52991 68.30484
-199.44064 -135.5741 68.454834
-192.94446 -132.73145 68.224213
-194.65286 -133.77521 68.374146
-189.01147 -131.45544 68.218719
-190.71976 -132.49902 68.368591
-184.22485 -129.65857 68.138489
-185.93289 -130.70172 68.288239
-180.29257 -128.38373 68.13327
-182.00037 -129.42664 68.28299
-174.65271 -126.06689 67.978607
-176.36038 -127.1095 68.128204
-178.06815 -128.1521 68.277832
-169.86716 -124.27222 67.898956
-171.57462 -125.31445 68.048492
-165.08176 -122.47833 67.819519
-166.78915 -123.5202 67.968964
-159.44299 -120.16443 67.665619
-161.15027 -121.20593 67.814941
-162.85754 -122.24756 67.964294
-155.51157 -118.89264 67.661224
-157.21878 -119.9339 67.810486
-142.52768 -113.22852 67.205566
-144.23465 -114.26904 67.354614
-145.94168 -115.30957 67.503723
-139.44968 -112.47876 67.276245
-124.75831 -105.78107 66.673676
-126.46534 -106.82062 66.822449
-128.17245 -107.86023 66.971222
-129.87949 -108.90002 67.120056
-121.67982 -105.03253 66.744781
-107.83936 -98.86084 66.218719
-109.54673 -99.899597 66.367218
-111.2541 -100.93848 66.515747
-103.90614 -97.594055 66.216003
-105.61366 -98.63269 66.364441
-89.206825 -90.908569 65.617889
-90.914803 -91.946655 65.766083
-92.622749 -92.984741 65.914337
-94.330696 -94.022949 66.062622
-70.564278 -82.962402 65.019836
-72.273293 -83.999878 65.167786
-73.982185 -85.037476 65.315765
-75.690956 -86.075134 65.463806
-66.626411 -81.697876 65.01825
-68.335732 -82.735352 65.166168
-77.73484 -88.442139 65.980164
-50.197975 -73.983643 64.276733
-51.908394 -75.020752 64.424438
-53.61869 -76.057861 64.572174
-55.328865 -77.095093 64.71991
-57.038948 -78.132202 64.867676
-34.612465 -66.790222 63.610931
-36.324287 -67.827148 63.758453
-38.035927 -68.864014 63.905975
-39.747292 -69.901001 64.053528
-30.667671 -65.526978 63.610413
-32.37986 -66.563843 63.757843
-11.636612 -56.261292 62.652161
-13.350754 -57.298096 62.799408
-15.064743 -58.334839 62.946671
-16.778519 -59.371704 63.093964
-18.492111 -60.408569 63.241287
-20.205551 -61.445313 63.388611
4.8444061 -48.550537 61.916763
3.1281891 -49.587463 62.063873
1.4122162 -50.62439 62.210968
-0.30357361 -51.661255 62.358093
-2.0190277 -52.698181 62.505234
14.810013 -43.657715 61.402649
13.092453 -44.694702 61.549652
11.375168 -45.73175 61.696686
9.6581268 -46.768799 61.843719
7.9412994 -47.805786 61.990753
23.064743 -39.80127 61.036011
21.346054 -40.838501 61.182953
19.627548 -41.87561 61.329895
17.909378 -42.91272 61.476852
33.045517 -34.906738 60.522873
31.325272 -35.944092 60.669708
29.605362 -36.981567 60.816589
27.885666 -38.01886 60.96347
26.166245 -39.056152 61.110367
41.3134 -31.048584 60.156982
39.591904 -32.086243 60.303772
37.870651 -33.12384 60.450577
36.149704 -34.161377 60.597382
52.172592 -25.632507 59.57132
50.449265 -26.670471 59.718033
48.726242 -27.708435 59.864761
47.003525 -28.746277 60.011505
45.281082 -29.784058 60.158264
43.558914 -30.821777 60.305023
60.455795 -21.771851 59.206131
58.731003 -22.81012 59.352783
57.006546 -23.848267 59.499481
55.282425 -24.886475 59.646164
65.293716 -19.986938 59.13446
63.56813 -21.025391 59.281128
74.451859 -15.604736 58.696442
81.364578 -11.448608 58.110138
79.63588 -12.487793 58.256714
77.907547 -13.526855 58.40329
76.17955 -14.565857 58.549866
97.464706 -2.9030151 57.086472
95.732742 -3.9431152 57.232986
94.001144 -4.9830322 57.379501
84.483841 -10.70105 58.185455
103.18919 -0.59387207 56.942261
101.45604 -1.6341553 57.088745
99.723282 -2.6744385 57.23526
131.5002 15.256592 54.893982
120.20042 8.4836426 55.846069
118.46355 7.4421387 55.992554
116.72704 6.4007568 56.139008
114.99092 5.3595581 56.285492
113.2552 4.3184204 56.431961
138.11995 18.093567 54.676956
136.37886 17.050781 54.823441
134.63817 16.008179 54.969894
130.28835 13.401978 55.336075
128.54915 12.359802 55.482513
126.81035 11.317749 55.628983
125.07195 10.275818 55.775452
123.33394 9.2340698 55.921906
157.82954 28.761963 53.361389
156.08357 27.717529 53.507904
154.33803 26.673218 53.654404
152.59297 25.629028 53.800888
150.84831 24.584961 53.947372
149.10414 23.541138 54.093842
147.36037 22.497498 54.240341
145.61705 21.453979 54.386795
143.87416 20.410522 54.533279
142.1317 19.367371 54.679718
140.38969 18.324219 54.826202
179.34694 40.49585 51.898972
177.59535 39.44928 52.045563
175.84425 38.402954 52.192123
174.09361 37.356812 52.338669
165.34737 32.128662 53.07132
163.5995 31.083618 53.217819
161.85207 30.038696 53.364319
160.10512 28.993835 53.510834
269.3476 94.142761 44.405563
267.56958 93.085083 44.552963
265.79214 92.027649 44.700333
191.27461 46.489197 51.242325
189.51982 45.441467 51.388931
187.76555 44.393982 51.535538
186.0117 43.346741 51.682144
184.25835 42.299622 51.82872
182.50551 41.252686 51.975311
264.54944 90.154785 45.144958
262.77298 89.0979 45.292267
260.99713 88.041321 45.439545
259.22177 86.984985 45.586792
257.44699 85.928833 45.734024
255.67276 84.872925 45.881241
253.89905 83.817261 46.028427
252.12592 82.761902 46.175583
250.3533 81.706787 46.322739
248.58121 80.651855 46.469849
246.80969 79.597168 46.616959
245.03873 78.542786 46.764053
243.26825 77.488525 46.911133
241.49832 76.434631 47.058182
239.72894 75.380859 47.2052
237.96008 74.327332 47.352219
222.06424 64.856079 48.674561
220.30061 63.804749 48.821411
218.53754 62.753784 48.968231
216.77498 61.702881 49.115051
215.01291 60.652344 49.261841
212.37079 59.076782 49.48201
210.61002 58.026733 49.628784
208.84975 56.976807 49.775528
207.08998 55.927185 49.922272
205.33073 54.877686 50.069
203.57201 53.828369 50.215714
201.81374 52.779419 50.362396
200.05598 51.730469 50.509094
198.29872 50.681824 50.655746
196.54198 49.633423 50.802399
194.78572 48.585144 50.949066
193.02995 47.537109 51.095703
236.72467 72.459351 47.796112
234.95682 71.406372 47.943069
233.18948 70.353516 48.089996
231.42267 69.301025 48.236923
229.65634 68.248718 48.38382
227.89061 67.196655 48.530716
226.12534 66.144775 48.677582
224.36061 65.09314 48.824432
-197.59009 -153.26929 75.014557
-199.29971 -154.31506 75.164978
-193.65454 -151.9906 75.008514
-195.36404 -153.03613 75.158844
-189.71942 -150.71265 75.002594
-191.42865 -151.75781 75.152863
-184.93008 -148.91272 74.921722
-186.63901 -149.95758 75.07193
-180.99557 -147.63599 74.916138
-182.70432 -148.68054 75.066254
-176.20694 -145.83765 74.835724
-177.91559 -146.88184 74.985687
-171.41876 -144.04022 74.755463
-173.12717 -145.08398 74.905396
-166.63092 -142.24365 74.675446
-168.33914 -143.28711 74.825287
-162.69736 -140.96936 74.670532
-164.40546 -142.01257 74.820282
-157.05579 -138.65283 74.516083
-158.76379 -139.69562 74.665741
-160.47186 -140.73859 74.81543
-152.26849 -136.85858 74.436768
-153.97641 -137.90106 74.586304
-144.91959 -133.50208 74.133453
-146.62735 -134.54407 74.282898
-148.33517 -135.58612 74.432343
-150.04309 -136.62836 74.581848
-141.84024 -132.75146 74.20401
-139.61469 -132.52185 74.349304
-131.4119 -128.64777 73.972321
-133.11963 -129.68884 74.12149
-134.82736 -130.73022 74.270752
-136.5351 -131.77161 74.419983
-115.34116 -122.23816 73.589508
-117.04896 -123.27844 73.738403
-118.75684 -124.31879 73.887329
-120.4647 -125.35925 74.036316
-112.26084 -121.48987 73.660858
-97.558693 -114.7962 73.060516
-99.266884 -115.83551 73.209106
-100.97511 -116.87494 73.357727
-102.6832 -117.91455 73.506378
-94.477089 -114.04907 73.132355
-78.914742 -106.84235 72.460297
-80.623634 -107.88092 72.608582
-82.332527 -108.91956 72.756897
-84.041359 -109.95825 72.905243
-70.70359 -102.98132 72.088074
-72.41291 -104.01959 72.236237
-74.122231 -105.05798 72.38443
-75.831367 -106.09631 72.532623
-68.474129 -102.75488 72.23468
-60.259926 -98.895386 71.86322
-61.969856 -99.93335 72.0112
-63.679817 -100.97131 72.159241
-65.389626 -102.00934 72.307251
-44.678658 -91.698364 71.195892
-46.389839 -92.73584 71.343658
-48.100838 -93.773438 71.491425
-49.811653 -94.811035 71.639252
-34.743965 -86.804443 70.678497
-36.455879 -87.841675 70.826111
-38.167671 -88.879028 70.973755
-39.879341 -89.916382 71.121429
-41.590889 -90.953857 71.269104
-32.510658 -86.578735 70.825745
-24.282448 -82.723083 70.456757
-25.995399 -83.760193 70.604218
-27.708107 -84.797363 70.751709
-29.420723 -85.834595 70.899231
-21.191048 -81.979004 70.530457
-12.957314 -78.123901 70.16217
-3.004097 -73.232239 69.647217
-4.7193069 -74.269165 69.794434
-6.4342728 -75.306213 69.94165
-8.149086 -76.34314 70.088898
-9.8637161 -77.380127 70.236145
13.488243 -65.523071 68.913391
11.771019 -66.560059 69.060394
10.053978 -67.596924 69.207428
8.3371811 -68.634033 69.354492
6.6206284 -69.670898 69.501526
23.460686 -60.631287 68.400269
21.742149 -61.668335 68.54718
20.023766 -62.705383 68.694092
18.305687 -63.74231 68.841003
16.587822 -64.779358 68.987976
30.001579 -57.813354 68.181396
28.282036 -58.850403 68.328217
26.562798 -59.887451 68.475067
33.1054 -57.069458 68.256378
51.369408 -48.32019 67.379822
49.646599 -49.357605 67.526428
47.924034 -50.39502 67.673065
46.201805 -51.432495 67.819733
44.47982 -52.469849 67.9664
41.897331 -54.025879 68.186432
54.47921 -47.575867 67.4552
69.665276 -39.566772 66.505127
67.939323 -40.604797 66.651581
66.213676 -41.6427 66.798065
64.488335 -42.680664 66.94458
74.507591 -37.783813 66.434448
72.780724 -38.82196 66.580872
88.860741 -30.288513 65.558929
87.131218 -31.327271 65.705292
85.402 -32.365906 65.851624
83.673088 -33.40448 65.997986
100.63869 -24.347534 64.903625
98.906792 -25.386841 65.049896
97.175133 -26.425903 65.196136
95.443932 -27.464966 65.342438
93.713097 -28.503967 65.48877
91.982567 -29.542786 65.63504
110.69851 -19.44281 64.39502
108.9645 -20.482544 64.541229
107.23083 -21.522156 64.687469
105.49758 -22.561768 64.83371
103.76464 -23.601196 64.97995
132.93512 -7.250061 62.863586
131.19611 -8.2911377 63.00975
129.45755 -9.3321533 63.155899
127.71935 -10.372986 63.302063
125.98156 -11.413696 63.448242
124.24419 -12.454346 63.594391
122.50723 -13.494873 63.74057
119.90249 -15.055359 63.959839
118.16647 -16.095642 64.106018
116.43084 -17.135742 64.252197
114.69564 -18.175781 64.398407
112.96075 -19.215698 64.544586
161.3457 8.6115723 60.821548
158.72714 7.0467529 61.040741
156.98196 6.0037842 61.186874
155.23715 4.9609375 61.332993
153.49286 3.9182129 61.479126
151.74899 2.8756714 61.625244
150.00555 1.833252 61.771378
148.26254 0.79101563 61.917496
146.51996 -0.25115967 62.063614
144.77783 -1.2931519 62.209732
143.03607 -2.335083 62.355881
171.48651 13.538086 60.314163
169.7381 12.494141 60.460281
167.99017 11.450256 60.606415
166.24268 10.406555 60.752548
164.4957 9.3629761 60.898666
179.35995 18.238037 59.65657
177.6095 17.193359 59.802719
175.8595 16.148804 59.948837
174.10995 15.10437 60.094971
224.69229 44.123291 56.224609
203.5697 31.544067 57.979843
193.03513 25.264648 58.856964
191.28104 24.218689 59.003128
189.52744 23.172913 59.149292
187.77429 22.127319 59.295425
186.0217 21.081848 59.441574
184.26953 20.03656 59.587723
182.51779 18.991455 59.733856
277.82675 75.704285 51.828079
257.05023 62.231689 53.88588
255.27771 61.178528 54.032425
253.50571 60.12561 54.178986
251.73428 59.072876 54.3255
249.96335 58.020447 54.472
248.19296 56.96814 54.618515
234.04886 48.557861 55.789932
232.2832 47.507507 55.936295
230.51807 46.457397 56.082657
228.75345 45.407471 56.228989
226.98938 44.357788 56.37532
223.46268 42.258972 56.667938
221.70013 41.209839 56.814224
219.93808 40.16095 56.96051
218.17648 39.112305 57.106781
216.41547 38.063782 57.253036
214.65494 37.015442 57.399277
212.89487 35.967285 57.545532
211.13531 34.919373 57.691757
209.37628 33.871704 57.837997
207.61771 32.824158 57.984177
205.85968 31.776733 58.130402
202.34503 29.682617 58.422775
200.58847 28.635803 58.56897
198.8324 27.589172 58.715134
197.07675 26.542725 58.861282
195.32166 25.49646 59.007462
276.58377 73.831726 52.272598
274.8053 72.77594 52.419373
273.02731 71.720459 52.566101
271.24991 70.665283 52.712799
269.47305 69.610229 52.859512
267.69675 68.555481 53.00618
265.92096 67.500977 53.152847
264.14575 66.446655 53.2995
262.37106 65.392517 53.446121
260.59692 64.338684 53.592728
258.8233 63.285095 53.739319
246.95767 55.100464 55.062302
245.18829 54.048706 55.208755
243.4194 52.997131 55.355164
241.65103 51.945801 55.501572
239.88318 50.894653 55.647964
238.11591 49.84375 55.794342
236.34912 48.793091 55.94072
-188.71808 -168.95636 81.645782
-190.42822 -170.00323 81.796448
-184.78098 -167.67694 81.639648
-186.49097 -168.72357 81.790253
-180.84418 -166.39819 81.633667
-182.55396 -167.44452 81.78418
-176.05276 -164.59711 81.552643
-177.76236 -165.64301 81.703064
-172.11658 -163.31964 81.546997
-173.8259 -164.36517 81.697357
-167.3259 -161.5202 81.4664
-169.0351 -162.56531 81.616638
-163.39001 -160.24396 81.461121
-165.09918 -161.28888 81.611267
-158.59988 -158.44611 81.38092
-160.30884 -159.49066 81.531036
-153.80997 -156.64911 81.301025
-155.51874 -157.6933 81.451019
-149.02005 -154.85297 81.221344
-150.72885 -155.89679 81.371216
-144.23044 -153.05768 81.141876
-145.93906 -154.10114 81.291687
-141.14932 -152.30627 81.212372
-125.07146 -145.88422 80.826477
-126.77993 -146.92639 80.975891
-128.48853 -147.96869 81.125336
-131.05136 -149.53235 81.349579
-107.28335 -138.42975 80.29425
-108.992 -139.4707 80.443298
-110.70068 -140.5119 80.592407
-112.40926 -141.55316 80.741547
-114.11788 -142.5946 80.890747
-90.345207 -131.5047 79.839691
-92.054314 -132.54474 79.988403
-93.763329 -133.58496 80.137207
-88.116295 -131.27777 79.986115
-95.807152 -135.9588 80.655609
-77.674522 -127.18549 79.759155
-70.315086 -123.84131 79.460602
-72.025047 -124.88055 79.608978
-73.734886 -125.9198 79.757416
-75.444603 -126.95917 79.905853
-59.867516 -119.75323 79.235474
-53.358971 -116.93109 79.012238
-55.069786 -117.96967 79.160339
-56.780571 -119.00824 79.308441
-50.271141 -116.18646 79.085419
-34.678368 -108.98822 78.418854
-36.390587 -110.02618 78.56662
-38.102776 -111.06415 78.714447
-39.81472 -112.10223 78.862274
-16.837006 -101.56903 77.902435
-18.550903 -102.60663 78.049927
-20.264618 -103.64423 78.197449
-21.97818 -104.68182 78.345032
-24.548187 -106.23834 78.566406
-13.743164 -100.82599 77.976624
-5.5040283 -96.970703 77.608856
1.8813782 -93.634705 77.315247
0.16552734 -94.671936 77.462463
-1.5501709 -95.709167 77.609711
-3.265625 -96.746521 77.756989
4.1209717 -93.410583 77.463531
13.228577 -89.037781 77.023468
19.764832 -86.220947 76.804504
18.046753 -87.258118 76.951477
16.328918 -88.295166 77.09848
21.483093 -85.183777 76.657562
24.585388 -84.441345 76.732788
41.114838 -76.733582 76.00293
39.393768 -77.770813 76.149658
37.673004 -78.807922 76.296387
35.952484 -79.845032 76.443115
34.232208 -80.882263 76.589905
56.806152 -69.54364 75.348389
55.082703 -70.580994 75.494904
53.359558 -71.618286 75.641449
51.636658 -72.655579 75.788025
60.780151 -68.282288 75.351257
59.056061 -69.319763 75.497742
79.955383 -59.014526 74.406281
78.227966 -60.052307 74.552551
76.500885 -61.090149 74.698853
74.774078 -62.127808 74.845154
73.047607 -63.165466 74.991486
71.321472 -64.203186 75.137848
82.21048 -58.790344 74.556061
98.303589 -50.261047 73.536591
96.572754 -51.299377 73.682678
94.842194 -52.337646 73.828796
93.112 -53.375916 73.974945
91.382172 -54.414063 74.121094
100.56308 -50.036499 73.686676
128.84241 -34.225525 71.647217
124.50003 -36.824524 72.011993
122.76376 -37.864075 72.157928
121.02783 -38.903442 72.303833
119.2923 -39.942688 72.449768
117.55719 -40.981934 72.595734
115.82239 -42.021057 72.741699
114.08798 -43.06012 72.887665
112.35397 -44.09906 73.033661
110.62027 -45.137878 73.179657
138.93439 -29.319641 71.141388
137.19489 -30.359863 71.287231
135.45581 -31.400085 71.433105
133.7171 -32.440063 71.578949
131.97882 -33.47998 71.724792
127.63483 -36.079407 72.089508
192.19217 2.4656982 66.69516
190.43939 1.4214478 66.840912
188.6871 0.37738037 66.986664
186.9353 -0.66644287 67.132446
185.18396 -1.710144 67.278198
183.43311 -2.7537842 67.42395
181.68262 -3.7971802 67.569702
179.93268 -4.8404541 67.715454
178.1832 -5.883606 67.861206
176.43408 -6.9266357 68.006989
174.68546 -7.9694824 68.15271
172.93732 -9.0122681 68.298492
171.18961 -10.054749 68.444244
145.55634 -26.492493 70.927551
143.81531 -27.53302 71.073364
142.07474 -28.573547 71.219177
234.05551 26.236572 63.566071
205.88632 9.4868774 65.898987
204.12997 8.4414673 66.044769
202.37405 7.3962402 66.190552
200.61862 6.3512573 66.336273
198.86368 5.3063354 66.482025
197.10919 4.2616577 66.627777
195.35519 3.2171021 66.773529
169.97412 -11.911926 68.88678
168.2272 -12.954224 69.032532
166.48068 -13.996399 69.178253
164.73465 -15.038391 69.324005
162.98904 -16.080261 69.469757
161.24387 -17.12207 69.61554
159.49911 -18.163696 69.761292
157.75476 -19.205261 69.907074
156.01089 -20.246582 70.052826
154.2674 -21.287903 70.198608
152.52438 -22.329041 70.344391
150.78174 -23.370056 70.490173
149.03952 -24.411011 70.635956
147.29773 -25.451782 70.781769
289.01007 58.834229 59.038544
287.22931 57.779419 59.184814
232.8262 24.372375 64.009369
231.06229 23.32428 64.155212
229.29889 22.276489 64.301025
227.53601 21.228943 64.446838
225.77362 20.181458 64.592651
224.01169 19.134216 64.738434
222.25031 18.087097 64.884277
220.48941 17.040222 65.030029
218.72903 15.99353 65.175842
216.96915 14.947021 65.321625
215.20969 13.900635 65.467377
285.98672 55.90741 59.629211
284.20697 54.853088 59.775421
282.4277 53.79895 59.921616
280.64905 52.745056 60.067795
278.87088 51.691467 60.213943
277.09326 50.638062 60.360092
275.31619 49.584839 60.50621
273.53967 48.531921 60.652328
271.7637 47.479126 60.798431
269.98825 46.426575 60.944519
268.21335 45.374329 61.090576
266.43896 44.322205 61.236618
264.66516 43.270386 61.38266
262.89185 42.21875 61.528702
261.11908 41.167297 61.674713
259.34683 40.116089 61.820724
257.57513 39.065063 61.966705
255.80396 38.014282 62.112686
254.03326 36.963684 62.258636
252.26318 35.913269 62.404602
250.49359 34.863159 62.550522
248.72449 33.81311 62.696472
246.95596 32.763367 62.842392
245.18793 31.713806 62.988312
243.42041 30.664429 63.134186
241.65344 29.615295 63.280075
239.88693 28.566284 63.425934
238.121 27.517456 63.571838
236.35556 26.468933 63.717682
-179.83673 -184.67059 88.286102
-181.54758 -185.71863 88.437073
