# .PCD v0.7 - Point Cloud Data file format
VERSION 0.7
FIELDS x y z
SIZE 4 4 4
TYPE F F F
COUNT 1 1 1
WIDTH 1581
HEIGHT 1
VIEWPOINT 0 0 0 1 0 0 0
POINTS 1581
DATA ascii
-52.90073 -34.218136 16.971609
-50.959 -33.049 17.976
-54.041 -32.931 15.038
-52.238106 -31.589291 16.209473
-50.520912 -31.169203 17.598806
-52.039791 -28.509235 15.940986
-50.341969 -28.465738 17.428522
-52.033241 -25.495777 15.891148
-50.298058 -25.485222 17.401058
-51.99155 -22.509336 15.903846
-50.261604 -22.524162 17.387665
-51.998642 -19.533201 15.855731
-50.24881 -19.503946 17.345211
-51.939163 -16.512245 15.831497
-50.162098 -16.463453 17.335354
-51.901035 -13.492297 15.770391
-50.085739 -13.474367 17.261917
-51.845478 -10.52693 15.70222
-50.002701 -10.476518 17.20796
-51.736691 -7.543045 15.628623
-49.848156 -7.468689 17.123327
-51.642609 -4.5416307 15.515443
-49.664059 -4.4803843 17.012659
-51.516613 -1.5603076 15.395845
-49.507568 -1.4838414 16.872515
-47.883858 -0.57471424 17.944
-51.36747 1.4132502 15.26958
-49.498875 1.5022287 16.605717
-47.741516 1.747111 17.791777
-51.201233 4.0875001 15.142467
-49.490421 4.50734 16.303186
-47.437443 4.6521182 17.657593
-49.435143 7.4568257 15.988418
-47.139679 7.6003184 17.476231
-49.200844 10.46104 15.792841
-46.785194 10.586855 17.288424
-48.961044 13.452539 15.606955
-46.527931 13.519918 17.070816
-44.828072 14.421922 17.885614
-48.712166 16.415827 15.446369
-46.491035 16.487238 16.717194
-44.524715 16.751617 17.762486
-48.512184 19.391542 15.291528
-46.508366 19.465038 16.430779
-44.337429 19.524292 17.619036
-48.294788 22.31675 15.195584
-46.50407 22.499369 16.211523
-44.153786 22.523764 17.527443
-48.158997 25.064104 15.07621
-46.518593 25.532927 15.992501
-43.881802 25.567894 17.436071
-48.024498 27.237999 15.0435
-46.399082 28.447899 15.796505
-43.642281 28.563274 17.287346
-46.165215 31.45154 15.65136
-43.492935 31.487276 17.087788
-41.785633 31.978359 17.905878
-45.859386 34.372097 15.483628
-43.501591 34.501419 16.760712
-41.534618 34.749382 17.768528
-45.51218 37.232098 15.316873
-43.489479 37.492947 16.369953
-41.128307 37.631165 17.580343
-45.199314 39.650936 15.123187
-43.503178 40.486046 15.927513
-40.684277 40.577297 17.36796
-43.109314 43.374294 15.71647
-40.517273 43.501694 16.978086
-38.636082 44.028461 17.808847
-42.663651 46.325619 15.377846
-40.487751 46.491959 16.457565
-38.10984 46.675468 17.588009
-42.239742 48.862251 15.158564
-40.451889 49.464645 15.881843
-37.589951 49.556591 17.273096
-35.769272 50.665543 17.880999
-39.989796 52.298531 15.472299
-37.5331 52.485313 16.665297
-35.30365 52.794003 17.673071
-39.375404 54.818367 15.186298
-37.419647 55.427223 16.012617
-34.613087 55.618706 17.333139
-32.717598 56.639301 17.9058
-36.989689 58.297012 15.459759
-34.483185 58.476803 16.659336
-32.215054 58.780251 17.643347
-36.332958 60.593563 15.165914
-34.429054 61.423386 15.860229
-31.561975 61.556751 17.168652
-29.580736 62.373535 17.841099
-33.722309 64.098679 15.371633
-31.49979 64.495308 16.307014
-28.811138 64.725761 17.46821
-26.909 65.890999 17.945
-33.002998 66.013 15.123
-31.14732 67.24028 15.574514
-28.49193 67.506454 16.722952
-26.104094 67.875366 17.651739
-30.337555 69.444611 15.202999
-28.351032 70.356117 15.787778
-25.504395 70.48951 17.027205
-23.273029 71.148193 17.735605
-27.572714 72.660477 15.254547
-25.400927 73.435593 15.932179
-22.539856 73.566246 17.12619
-20.334131 74.267242 17.749376
-24.783266 75.698601 15.30615
-22.463379 76.41658 16.00396
-19.559599 76.559372 17.13706
-17.276167 77.308723 17.732309
-21.733583 78.664284 15.317
-19.428507 79.428444 15.932471
-16.529835 79.508842 17.058146
-14.121989 80.248718 17.636957
-18.615944 81.530205 15.296315
-16.34767 82.34938 15.802197
-13.487243 82.505516 16.826113
-10.845345 82.968407 17.535204
-8.5629091 83.77227 17.876364
-15.463266 84.298393 15.189467
-13.191506 85.107315 15.588073
-10.523175 85.502449 16.323853
-7.6092119 85.619301 17.253332
-4.9272838 86.410881 17.688183
-9.8786745 87.715118 15.366134
-7.423377 88.191628 15.973361
-4.4974766 88.483604 16.727856
-1.6648467 88.790092 17.379568
1.0641249 89.507019 17.733002
62.770248 89.727501 17.87875
64.967163 89.221817 17.585999
66.750481 88.747871 17.380171
-6.3670001 90.12175 15.075
-4.2665462 90.767845 15.410898
-1.3759327 91.293457 15.942847
1.5140527 91.550316 16.562014
4.4176226 91.675293 17.186108
7.2339396 92.202057 17.49077
10.075808 92.687584 17.813732
53.738998 92.995003 17.933001
55.774475 92.599426 17.701342
58.53054 92.132706 17.413115
61.470978 91.590462 17.09458
64.500282 91.414368 16.479193
66.558434 91.333992 15.997259
-0.21700001 93.039001 15.111
1.8298334 93.595329 15.313561
4.6525717 94.159958 15.659175
7.5433564 94.502922 16.093138
10.497297 94.447464 16.726793
13.299154 94.691376 17.051758
16.459517 94.928772 17.402628
19.453001 95.203156 17.557522
22.470213 95.415382 17.708967
25.421001 95.691147 17.744614
28.558912 95.749954 17.892912
31.408998 95.820526 17.882799
34.327164 95.784271 17.889111
38.483501 95.678673 17.844248
40.395325 95.589417 17.763233
43.582592 95.421204 17.641273
46.565796 95.227028 17.504593
49.516106 94.994949 17.283676
52.587536 94.560242 17.06229
55.590096 94.350082 16.663107
58.402245 94.059059 16.31181
61.44054 94.071899 15.582567
63.890923 93.432968 15.40982
7.8370008 96.131851 15.149
10.641849 96.527634 15.366035
13.630118 96.956917 15.561165
16.579111 97.163277 15.878651
19.523508 97.353386 16.122255
22.4554 97.422096 16.366413
25.484789 97.309052 16.684172
28.546686 97.458679 16.738012
31.546961 97.310738 16.922842
34.500233 97.463821 16.794502
37.499489 97.562981 16.632788
40.572289 97.475067 16.514423
43.474224 97.409096 16.347342
46.394936 97.416321 16.106667
49.263237 97.074486 15.931318
52.274616 96.873917 15.598843
55.226524 96.330055 15.435314
22.938875 99.201744 15.126125
25.884964 99.308319 15.321399
28.24 99.4702 15.308851
31.557039 99.451256 15.420335
34.222038 99.516563 15.353518
37.250546 99.470154 15.350702
40.839863 99.252266 15.288136
43.073719 99.186996 15.117857
45.202 99.063004 15
-54.059502 -37.425003 18.056499
-52.364891 -37.141888 19.552284
-50.702549 -36.4431 20.712902
-51.717381 -35.036228 18.706861
-49.835518 -34.220436 19.918095
-47.837002 -33.145 20.983999
-49.115543 -31.629313 18.978508
-47.321503 -31.204691 20.345774
-48.836109 -28.537527 18.710524
-47.063042 -28.502098 20.180325
-48.799999 -25.520512 18.655031
-47.060589 -25.502268 20.109653
-48.778702 -22.494858 18.631807
-46.999866 -22.479506 20.105774
-48.728497 -19.536352 18.58662
-46.980328 -19.464287 20.040977
-48.663383 -16.504187 18.539919
-46.906254 -16.472086 19.982735
-48.564163 -13.565302 18.45841
-46.80872 -13.486447 19.898899
-48.500423 -10.539454 18.364845
-46.695103 -10.473991 19.792278
-48.36565 -7.6413779 18.264288
-46.534847 -7.4790468 19.657337
-44.954666 -6.2123337 20.889999
-48.194904 -4.7792506 18.140282
-46.480309 -4.4896379 19.367674
-44.784348 -4.1825719 20.766544
-48.070499 -2.7325001 18.0485
-46.45575 -1.526549 19.039885
-44.53455 -1.3394053 20.510094
-46.241776 1.4424143 18.818758
-44.233906 1.6105113 20.248716
-45.979549 4.4109883 18.593451
-43.857861 4.5802355 19.978458
-45.666721 7.3674917 18.396564
-43.538826 7.5299029 19.668257
-41.824459 8.307847 20.788462
-45.345169 10.183558 18.178539
-43.510357 10.50194 19.198658
-41.424877 10.716815 20.5175
-45.098598 12.316 18.0646
-43.429779 13.457277 18.807913
-40.931103 13.598039 20.242729
-43.084831 16.409374 18.59251
-40.525234 16.519634 19.984388
-38.76273 17.117138 20.855898
-42.854443 19.471533 18.446718
-40.494438 19.533226 19.677675
-38.390266 19.64537 20.685856
-42.655434 22.447317 18.337456
-40.493008 22.494617 19.407379
-38.082153 22.594555 20.558975
-42.423378 25.326212 18.221573
-40.517761 25.477039 19.155691
-37.772999 25.536259 20.45895
-42.206501 28.013208 18.116835
-40.502007 28.479315 18.894562
-37.562531 28.53212 20.275845
-35.874374 29.519375 20.940252
-40.367645 31.447971 18.706434
-37.494488 31.480188 20.044296
-35.659328 31.747292 20.848156
-40.080391 34.390499 18.52276
-37.504684 34.500282 19.715021
-35.26067 34.62537 20.694761
-39.679394 37.348106 18.313911
-37.486607 37.48793 19.32435
-34.864418 37.611252 20.473791
-39.284199 39.957779 18.14823
-37.511326 40.541027 18.879623
-34.521229 40.511593 20.234825
-32.730919 41.31535 20.873192
-37.268742 43.397583 18.564264
-34.478405 43.49194 19.798641
-32.279453 43.720795 20.705395
-36.697464 46.278717 18.334866
-34.485222 46.496799 19.292231
-31.695972 46.598465 20.465609
-29.950001 47.847 20.996
-36.208691 48.648495 18.108624
-34.470188 49.436966 18.748569
-31.519236 49.500591 20.006229
-29.442419 49.805496 20.789001
-33.943977 52.302662 18.393925
-31.474197 52.487953 19.435751
-28.78611 52.628429 20.507652
-33.348366 54.687962 18.1649
-31.412317 55.43874 18.813864
-28.473288 55.488903 20.034029
-26.39563 55.883526 20.770731
-30.848108 58.233593 18.383858
-28.45612 58.493114 19.336811
-25.625849 58.624222 20.436144
-23.741001 59.581806 20.9086
-30.297638 60.373001 18.110363
-28.33996 61.37492 18.638931
-25.496027 61.556679 19.737186
-23.004734 61.831142 20.623268
-27.570772 63.852142 18.27379
-25.500998 64.479195 18.945026
-22.485104 64.471848 20.112804
-20.337971 65.023178 20.739824
-24.881451 67.109207 18.412485
-22.456045 67.491234 19.245081
-19.540848 67.549355 20.307957
-17.429844 68.329651 20.827711
-24.086334 69.263336 18.067333
-22.159233 70.202515 18.490507
-19.480618 70.491646 19.413231
-16.629141 70.626709 20.374565
-14.459388 71.452728 20.854998
-21.363726 72.340279 18.084728
-19.271978 73.221153 18.551287
-16.518593 73.502289 19.456627
-13.63475 73.630188 20.40123
-11.373032 74.501839 20.824812
-18.279751 75.367165 18.115751
-16.238039 76.245613 18.537994
-13.497116 76.485855 19.408724
-10.603982 76.587822 20.308115
-8.2151871 77.327179 20.740816
-15.356201 78.201996 18.097797
-13.215807 79.053543 18.47296
-10.484432 79.445633 19.210543
-7.5200477 79.50769 20.116518
-4.7610755 80.138329 20.64419
-2.6378572 80.808853 20.916859
68.115501 80.894501 20.9585
-10.044963 81.821884 18.324947
-7.4261842 82.439636 18.84812
-4.5122795 82.493477 19.697599
-1.6173887 82.669991 20.406574
1.1254687 83.38382 20.773344
62.821331 83.840996 20.909332
64.851311 83.269638 20.625324
67.161789 82.577675 20.388561
-6.5851579 84.354897 18.230577
-4.2949991 85.052109 18.568615
-1.5214816 85.47863 19.130508
1.4617487 85.483208 19.859419
4.3583951 85.738304 20.37768
7.2579656 86.300941 20.702517
9.5385447 86.794365 20.895727
56.253677 86.675224 20.863274
58.776554 86.227699 20.566431
61.509167 85.59449 20.294901
64.526489 85.485405 19.643536
66.754135 85.401222 19.145514
-0.93063998 87.545059 18.23292
1.6627316 88.116875 18.583693
4.5126824 88.501045 19.047279
7.5045276 88.490654 19.676956
10.437658 88.570488 20.147671
13.319752 88.934746 20.412096
16.406384 89.348549 20.624123
19.359118 89.629997 20.825813
22.061068 89.838638 20.938572
41.967999 89.987999 20.952
43.910175 89.763596 20.88574
46.720467 89.472603 20.75432
49.629913 89.141434 20.581612
52.569908 88.713287 20.393839
55.545593 88.48381 20.041475
58.445347 88.382027 19.549662
61.519386 88.371155 18.905987
64.113297 87.941513 18.530531
66.493332 87.276665 18.222
5.0542855 90.350761 18.136381
7.7387414 90.820885 18.434492
10.613155 91.297241 18.732393
13.505267 91.481575 19.080275
16.510143 91.487068 19.464823
19.504486 91.494003 19.810345
22.503098 91.47702 20.090025
25.4704 91.556374 20.23785
28.485735 91.721085 20.275106
31.522163 91.699417 20.342381
34.514294 91.755905 20.30121
37.509781 91.658333 20.271023
40.487885 91.5121 20.196558
43.527557 91.468788 19.993141
46.526882 91.432968 19.717842
49.507229 91.467651 19.345488
52.48848 91.383324 18.989365
55.449024 91.075386 18.630835
58.558331 90.556908 18.344021
60.495289 90.238136 18.123999
14.266041 93.327972 18.186357
16.563272 93.535065 18.256271
19.566715 93.724335 18.511356
22.5567 93.896172 18.679316
25.542105 94.154831 18.712315
28.482832 94.255669 18.802828
31.516485 94.297249 18.835375
34.515427 94.246056 18.85141
37.454788 94.253593 18.805141
40.447575 94.105156 18.685562
43.40736 93.94471 18.563293
46.39542 93.685226 18.443312
49.318653 93.466209 18.295696
52.2925 93.136002 18.196499
-49.569633 -39.245632 23.408924
-51.281239 -38.305763 21.327141
-49.511944 -37.520542 22.547567
-47.620029 -36.494923 23.662539
-48.715366 -35.147202 21.682955
-46.775108 -34.284946 22.811752
-44.866333 -33.320999 23.884834
-45.94492 -31.709461 21.98535
-44.548592 -31.315659 23.455246
-45.570068 -28.530184 21.719481
-44.458237 -28.505716 23.22905
-45.554588 -25.502911 21.684965
-44.442375 -25.476563 23.186684
-45.53405 -22.512127 21.646633
-44.412586 -22.462259 23.158985
-45.485924 -19.539728 21.58676
-44.337578 -19.443108 23.115128
-45.411377 -16.582712 21.504038
-44.271984 -16.452108 22.985615
-45.31255 -13.604967 21.378798
-44.162647 -13.464864 22.889664
-45.197285 -10.718114 21.263716
-44.049694 -10.465845 22.726713
-45.06657 -8.1479998 21.10043
-43.880432 -7.4949965 22.557547
-43.510902 -4.5024219 22.498791
-43.09655 -1.5223417 22.396595
-41.929996 -0.66716665 23.896666
-42.759144 1.3616064 22.078918
-41.680996 1.7726469 23.5322
-42.438114 4.2106118 21.499243
-41.314972 4.6465926 23.020144
-42.1245 6.459167 21.185167
-40.836452 7.5123339 22.481749
-40.017376 10.374088 22.288332
-38.727291 11.317123 23.65062
-39.524181 13.142524 21.535055
-38.226475 13.677249 22.930553
-39.164001 15.1695 21.199001
-37.497604 16.518772 22.241529
-35.829166 17.490166 23.718668
-36.903408 19.369602 21.593451
-35.217197 19.752714 22.949631
-36.592003 22.371481 21.293959
-34.589874 22.551973 22.352486
-32.466484 23.385208 23.507996
-36.353565 25.217438 21.144039
-34.518967 25.46134 21.940577
-31.715986 25.712706 23.218008
-29.85 26.585251 23.938875
-36.203781 27.386444 21.099888
-34.455273 28.467356 21.683737
-31.489691 28.510868 22.952677
-29.414253 28.805117 23.767176
-34.195164 31.467928 21.479362
-31.489328 31.49505 22.613541
-28.978926 31.610806 23.601524
-33.814476 34.379086 21.338676
-31.527628 34.50351 22.264606
-28.558598 34.522514 23.410025
-26.841667 35.679665 23.928999
-33.417377 37.151878 21.174538
-31.495733 37.496925 21.911884
-28.487114 37.484318 23.082542
-26.472034 37.800846 23.807236
-33.041668 39.383999 21.038332
-31.330322 40.408615 21.586973
-28.516294 40.485752 22.663937
-25.92942 40.637321 23.606808
-30.821894 43.32526 21.352039
-28.511656 43.504646 22.222218
-25.495708 43.511318 23.326582
-23.586349 44.274071 23.8652
-30.32494 45.779881 21.161243
-28.500151 46.488911 21.739025
-25.479788 46.49715 22.861443
-23.039284 46.699345 23.670559
-28.060432 49.343201 21.421852
-25.479395 49.488556 22.355837
-22.556889 49.535713 23.381664
-20.607557 50.28624 23.876116
-27.446089 52.013184 21.172409
-25.489721 52.485912 21.795059
-22.520678 52.501854 22.83923
-19.973433 52.652287 23.662548
-25.033716 55.299053 21.401567
-22.511818 55.493084 22.256332
-19.535784 55.534443 23.223726
-17.385681 56.019699 23.803223
-24.377848 57.576069 21.139
-22.424059 58.450615 21.650951
-19.518469 58.483521 22.620895
-16.644358 58.575436 23.520775
-14.622263 59.641838 23.881947
-21.722536 61.086502 21.272881
-19.456381 61.519268 21.946516
-16.519022 61.486061 22.908594
-13.806991 61.616398 23.689634
-11.7775 62.810501 23.970501
-19.086647 64.263145 21.384314
-16.483969 64.496704 22.181099
-13.513618 64.576515 23.073618
-11.024291 64.835175 23.717728
-18.245165 66.44075 21.086
-16.267538 67.325294 21.507223
-13.471938 67.503983 22.326765
-10.466702 67.482658 23.212132
-8.0126057 67.926285 23.758715
-15.444228 69.48996 21.142637
-13.366161 70.344101 21.544098
-10.525105 70.48893 22.349688
-7.5286999 70.475731 23.173193
-4.8702784 70.966949 23.727444
-2.724 71.902672 23.970001
-12.51788 72.427483 21.180038
-10.355098 73.308609 21.528471
-7.4744649 73.49398 22.283728
-4.493031 73.491425 23.059652
-1.7335331 73.79599 23.645357
0.63417864 74.598007 23.888355
65.742996 74.591255 23.954624
67.746719 74.254456 23.755556
-9.4541054 75.374001 21.116419
-7.237844 76.199081 21.442059
-4.4942613 76.485596 22.087755
-1.505793 76.497795 22.799992
1.4332191 76.558647 23.4284
4.1681352 77.219048 23.7609
6.3067999 77.8638 23.9482
61.980537 77.386429 23.796619
64.659904 76.714951 23.495754
67.379967 76.470703 22.984859
-6.1199999 78.194 21.018
-4.2056537 78.815659 21.323351
-1.4524081 79.449699 21.773819
1.5003089 79.478813 22.449327
4.4907451 79.485107 23.026505
7.3723998 79.679298 23.488348
10.254228 80.275871 23.7463
12.618294 80.737999 23.930765
53.205925 80.790298 23.923693
55.673943 80.373291 23.747913
58.646271 79.768341 23.498367
61.4725 79.477432 23.086695
64.497536 79.460869 22.431885
67.189301 79.44561 21.808668
-0.65148151 81.42144 21.163668
1.6918354 82.079185 21.430153
4.4968348 82.481049 21.855057
7.4932785 82.48494 22.427063
10.488071 82.487991 22.920887
13.482664 82.533043 23.349928
16.376457 82.923676 23.564114
19.389927 83.352989 23.713366
22.395462 83.598869 23.872723
25.145563 83.811134 23.955303
27.372999 83.962997 23.983999
37.855251 83.966507 23.967749
40.887112 83.787689 23.94463
43.716259 83.581093 23.825417
46.61599 83.26799 23.682394
49.570099 82.944969 23.51243
52.524284 82.527908 23.314291
55.422382 82.39978 22.956161
58.480175 82.467438 22.38718
61.456223 82.472321 21.780758
64.274498 81.85553 21.441183
66.683647 81.264 21.098
5.094471 84.374344 21.184149
7.6709042 84.894379 21.430904
10.564659 85.422829 21.676264
13.502054 85.493668 22.098177
16.491259 85.477356 22.489752
19.502901 85.496056 22.814301
22.49197 85.473114 23.067863
25.50234 85.471443 23.263227
28.488764 85.535774 23.351097
31.49057 85.54026 23.403196
34.501938 85.563828 23.381599
37.503525 85.483109 23.342773
40.525658 85.487854 23.207407
43.48925 85.486473 22.996347
46.513298 85.497871 22.724396
49.510078 85.488113 22.398319
52.525974 85.491158 21.997688
55.426785 85.348549 21.617115
58.256187 84.822853 21.369438
60.674644 84.255653 21.200214
11.410221 87.129333 21.043777
13.764999 87.542427 21.191406
16.606339 87.886948 21.391335
19.5329 88.15451 21.573481
22.535814 88.362694 21.737015
25.493444 88.456078 21.864292
28.493185 88.491127 21.966574
31.48279 88.471565 22.038555
34.484356 88.470924 22.027205
37.501198 88.505173 21.938475
40.492523 88.474991 21.792374
43.440926 88.296028 21.671101
46.447044 88.017311 21.525772
49.392296 87.675278 21.356287
52.074032 87.318611 21.174244
54.080002 87.071999 21.024
26.119833 90.11367 21.077
28.723063 90.242867 21.097034
31.677155 90.212807 21.162651
34.477776 90.267113 21.119551
37.479103 90.15963 21.120895
39.488667 90.040672 21.039999
-48.434639 -39.538044 24.594933
-46.880203 -39.720947 26.031767
-48.274666 -38.498669 24.304142
-46.419971 -37.563183 25.419176
-44.503757 -36.680325 26.54557
-45.607212 -35.209084 24.537844
-43.685677 -34.388836 25.75687
-41.994999 -33.389 26.92
-43.083744 -31.569494 25.422171
-41.926765 -31.360462 26.888155
-42.961708 -28.494686 25.397503
-41.900284 -28.408287 26.847668
-42.932533 -25.497042 25.33316
-41.833801 -25.358131 26.801702
-42.896793 -22.511225 25.230482
-41.751572 -22.414957 26.709854
-42.85199 -19.542158 25.119061
-41.666965 -19.456591 26.606592
-42.766502 -16.565117 25.001888
-41.570358 -16.44483 26.479034
-42.67078 -13.543895 24.859638
-41.452614 -13.483876 26.369911
-42.559242 -10.578721 24.725645
-41.342487 -10.467401 26.209126
-42.424393 -7.593143 24.551304
-41.20879 -7.4686522 26.066586
-42.21751 -4.6672201 24.327951
-41.032135 -4.4411449 25.843824
-42.081501 -2.52175 24.06175
-40.79443 -1.4848146 25.569317
-40.286137 1.4938132 25.510286
-38.894501 2.7755001 26.952
-39.836769 4.3834529 25.225672
-38.678619 4.8396792 26.589441
-39.466576 7.192203 24.664431
-38.267414 7.6723671 26.088169
-39.115997 9.2727509 24.209499
-37.626438 10.535863 25.589888
-36.815559 13.277859 25.168346
-35.519493 14.017646 26.424101
-36.29623 15.536366 24.472729
-34.809021 16.539476 25.741882
-33.874958 19.132637 25.089542
-32.364929 19.966469 26.336657
-33.245399 21.290401 24.260302
-31.437973 22.314861 25.552864
-29.525627 23.418753 26.696707
-30.528395 24.690636 24.52809
-28.628983 25.677773 25.608267
-26.61842 26.585894 26.616158
-28.044569 28.386543 24.476332
-25.667904 28.70109 25.694649
-23.351406 29.512619 26.541082
-27.529116 31.260578 24.203976
-25.51898 31.496708 24.957424
-22.585243 31.578745 26.077892
-20.353127 32.22477 26.750645
-27.158499 33.618584 24.05633
-25.473156 34.468143 24.581057
-22.468048 34.490948 25.650814
-19.647854 34.6292 26.558132
-17.806751 35.694252 26.952999
-25.056643 37.365314 24.369873
-22.491613 37.508171 25.221327
-19.528982 37.513622 26.193127
-17.330418 37.887817 26.811235
-24.512461 40.220985 24.18132
-22.505371 40.489113 24.807688
-19.511927 40.480724 25.777552
-16.704056 40.631859 26.605976
-14.929501 41.767998 26.965
-24.153334 42.295666 24.018
-22.347057 43.347675 24.444162
-19.516064 43.503193 25.324743
-16.500584 43.513355 26.233072
-14.334637 43.693813 26.820162
-21.646122 46.181374 24.225163
-19.490883 46.495167 24.865566
-16.48175 46.505878 25.771326
-13.62429 46.605404 26.562864
-11.715941 47.48447 26.915527
-21.148376 48.499496 24.046247
-19.306318 49.469936 24.453127
-16.478128 49.494328 25.305183
-13.579849 49.443954 26.131786
-11.027137 49.657082 26.765337
-18.67548 52.041603 24.190289
-16.476839 52.502743 24.772306
-13.506675 52.49474 25.620756
-10.530904 52.493431 26.414444
-8.3412218 53.18618 26.834002
-16.125509 55.266132 24.358568
-13.460386 55.4897 25.084623
-10.498819 55.489044 25.865191
-7.6213331 55.568844 26.581587
-5.5255942 56.437782 26.906193
-15.452308 57.53754 24.091383
-13.414968 58.408699 24.495314
-10.456689 58.503242 25.277748
-7.4931822 58.49181 26.037546
-4.7295365 58.672367 26.65506
-2.7074003 59.596596 26.924934
-12.682119 60.878876 24.176859
-10.481573 61.486401 24.643511
-7.4948592 61.486515 25.414385
-4.4624496 61.480953 26.138451
-1.7007391 61.688282 26.681076
0.31850004 62.61219 26.920124
-9.87391 64.039749 24.227839
-7.5160389 64.493256 24.735516
-4.4571114 64.448761 25.473675
-1.4894354 64.50029 26.108004
1.3521857 64.663963 26.643505
3.8623745 65.603104 26.865854
65.844002 65.819 26.995001
67.894547 65.263748 26.772802
69.522934 64.553154 26.649912
-6.9398885 67.050865 24.254932
-4.4942751 67.518547 24.72625
-1.4895787 67.501846 25.392694
1.4865988 67.490509 25.999817
4.4010129 67.540512 26.529392
7.0651174 68.25032 26.803349
9.1083336 68.872673 26.983999
62.230068 68.548996 26.864658
64.69809 67.80191 26.636034
67.504471 67.493042 26.146576
69.267891 67.352501 25.828915
-3.9831488 69.855728 24.248648
-1.4973816 70.474052 24.633871
1.4941478 70.503899 25.242937
4.4948988 70.505585 25.804903
7.5114727 70.594955 26.301718
10.302482 70.802124 26.67795
13.096762 71.562057 26.851185
56.045238 71.595436 26.876316
58.642731 70.920212 26.731216
61.480591 70.468369 26.431551
64.501709 70.523987 25.792572
67.49926 70.464058 25.160782
69.227943 70.114952 24.90078
-0.85349172 72.640457 24.186638
1.6245552 73.341248 24.484034
4.5057459 73.474533 24.984423
7.5028319 73.498428 25.506788
10.482232 73.475113 25.981829
13.467521 73.533966 26.391182
16.310532 73.792709 26.656523
19.33843 74.409142 26.778467
22.177305 74.803223 26.90539
44.0952 74.915398 26.966999
46.796303 74.6427 26.885771
49.675282 74.281914 26.75071
52.589016 73.828415 26.595663
55.483574 73.489738 26.326334
58.511333 73.47242 25.884743
61.520477 73.498077 25.321947
64.342461 73.446472 24.818756
67.283333 72.898483 24.359894
69.036339 72.398338 24.157667
2.6149001 75.252701 24.086601
4.7511988 75.896454 24.292061
7.5031509 76.455406 24.603832
10.489911 76.487015 25.099747
13.502051 76.488495 25.49618
16.494406 76.482117 25.847092
19.493647 76.505867 26.140606
22.49926 76.512527 26.407181
25.449886 76.628174 26.56601
28.464762 76.839714 26.618587
31.481533 76.889305 26.666321
34.468998 76.957451 26.656403
37.499405 76.876015 26.636351
40.562878 76.738228 26.58876
43.537304 76.55307 26.482527
46.50148 76.494965 26.293119
49.511181 76.491653 26.021196
52.493446 76.49395 25.678896
55.504395 76.513054 25.265495
58.464146 76.48838 24.823425
61.338524 76.090836 24.414606
63.787815 75.474655 24.175844
8.2433662 78.355911 24.145933
10.698224 78.873192 24.304873
13.568536 79.376389 24.531376
16.491348 79.488823 24.854042
19.499771 79.49881 25.152096
22.500673 79.479355 25.430063
25.48744 79.486061 25.616951
28.498936 79.504417 25.723995
31.488924 79.497742 25.787367
34.536381 79.486961 25.788368
37.509983 79.502907 25.728937
40.521 79.48275 25.631058
43.499176 79.477356 25.456537
46.480682 79.502777 25.204302
49.491402 79.494835 24.921543
52.444057 79.370132 24.612242
55.354458 78.955544 24.370766
57.847466 78.484436 24.169088
14.688749 81.119247 24.0665
16.810877 81.527031 24.154266
19.57774 81.88504 24.296318
22.530775 82.11084 24.458675
25.550516 82.315125 24.572655
28.496574 82.495964 24.625023
31.488726 82.500786 24.6738
34.505215 82.499031 24.664717
37.484867 82.44252 24.624428
40.434509 82.33802 24.544428
43.431549 82.111809 24.446589
46.369225 81.813416 24.318951
49.241894 81.474335 24.165869
51.379433 81.174995 24.050001
29.093601 84.047203 24.036999
31.568857 84.099991 24.025999
34.321999 84.093781 24.028666
-45.416725 -39.455887 27.247831
-44.796288 -39.177143 27.735287
-45.146797 -38.614006 27.1551
-43.443268 -37.391014 27.933203
-41.245338 -36.536842 29.229465
-42.453468 -35.213879 27.375196
-40.77504 -34.464813 28.721964
-40.594582 -31.508978 28.558094
-40.522362 -28.518539 28.549257
-40.409267 -25.517252 28.545218
-40.265903 -22.533478 28.528936
-38.937668 -21.773998 29.936554
-40.16996 -19.547306 28.392248
-38.865749 -19.243715 29.855183
-40.06604 -16.532299 28.250122
-38.716499 -16.345922 29.719021
-39.966503 -13.521635 28.080669
-38.585022 -13.440001 29.587053
-39.83791 -10.552648 27.962364
-38.471409 -10.452422 29.426117
-39.71254 -7.5529485 27.794615
-38.337379 -7.4243927 29.287369
-39.571121 -4.6324191 27.611034
-38.158939 -4.4135866 29.079445
-39.347752 -1.7457621 27.406288
-37.899368 -1.4445937 28.913626
-39.149925 0.61046153 27.164537
-37.637257 1.5387182 28.627899
-37.22015 4.4206643 28.383617
-35.744946 5.0466948 29.748331
-36.830269 7.3634748 27.930511
-35.353592 7.6926355 29.383518
-36.373055 9.9775524 27.457449
-34.864124 10.618189 28.822315
-34.162483 13.333754 28.342829
-32.555485 14.203105 29.553732
-33.55349 16.017956 27.565268
-31.85001 16.693275 28.939154
-31.107159 19.268785 28.130959
-29.268856 19.993212 29.401834
-30.334421 21.477367 27.410683
-28.41621 22.420835 28.466661
-26.290932 23.406067 29.524504
-27.561596 24.642784 27.525143
-25.460716 25.454042 28.538353
-23.169985 26.323751 29.479881
-24.568655 27.529545 27.427143
-22.351892 28.320717 28.327568
-19.830011 29.100163 29.261841
-17.762144 29.793715 29.823286
-21.386639 30.272184 27.241545
-19.169958 31.301161 27.774704
-16.661398 31.709116 28.728313
-13.992855 32.358379 29.464813
-18.370737 33.679676 27.130527
-16.501537 34.496101 27.584
-13.503089 34.515335 28.527681
-10.627094 34.774548 29.312155
-8.1593828 35.377544 29.787315
-16.019299 37.268738 27.302355
-13.503197 37.498901 27.987146
-10.508779 37.487633 28.788507
-7.5570149 37.533268 29.528219
-5.4833951 38.385838 29.881651
-15.419424 39.676003 27.1185
-13.48813 40.488556 27.537979
-10.530525 40.492237 28.337038
-7.4852467 40.510437 29.093359
-4.7348886 40.690636 29.702417
-2.8915002 41.493332 29.987165
-12.941864 43.309929 27.262318
-10.500863 43.481476 27.86665
-7.4887261 43.48447 28.622324
-4.5144277 43.470173 29.309513
-2.0213902 43.816204 29.795862
-12.3587 45.6623 27.067402
-10.396889 46.459724 27.445492
-7.5144529 46.501469 28.143003
-4.474822 46.485947 28.846546
-1.5091071 46.439293 29.471823
0.81487137 47.027325 29.84845
-9.7367601 49.093418 27.17967
-7.491889 49.499535 27.662312
-4.5125089 49.507717 28.338625
-1.496453 49.503139 28.990141
1.467329 49.612118 29.548698
3.8116 50.222988 29.869989
71.487823 50.699169 29.897942
72.05233 50.457996 29.874334
-9.1070004 51.173 27.006001
-7.1749053 52.255367 27.286627
-4.4982238 52.498585 27.86009
-1.4964439 52.488384 28.490372
1.4973849 52.486412 29.06497
4.4664516 52.536644 29.583931
6.8507566 53.245617 29.876245
68.441917 53.495365 29.878212
70.485962 52.640362 29.666664
-6.3063812 54.598808 27.07119
-4.3226233 55.377674 27.375551
-1.511076 55.494621 27.940542
1.4755853 55.508095 28.509285
4.4847312 55.545231 29.045322
7.4581409 55.557137 29.561722
10.148033 56.316868 29.824177
12.109 56.986 29.971001
62.937 56.873001 29.987
64.927055 56.278492 29.824774
67.56041 55.578354 29.521227
70.100578 55.432495 29.048525
-3.6167045 57.60828 27.131519
-1.4210005 58.44009 27.414267
1.4961747 58.471558 27.958168
4.4628549 58.436943 28.500395
7.5158849 58.496273 29.006977
10.502027 58.495758 29.461098
13.230938 58.848164 29.776434
15.512724 59.583698 29.923725
59.195686 59.504044 29.883434
61.68399 58.805244 29.702261
64.492119 58.473392 29.338509
67.50087 58.487854 28.781168
69.877251 58.408615 28.314157
-0.63159519 60.596344 27.123857
1.5643163 61.405247 27.388287
4.4897313 61.524666 27.888445
7.5015645 61.597099 28.381178
10.527081 61.49855 28.870173
13.502427 61.488953 29.271105
16.445072 61.528713 29.623882
19.316519 62.093777 29.813864
21.852312 62.700279 29.923311
50.534142 62.862427 29.948145
52.879585 62.435802 29.86891
55.653793 61.898476 29.704309
58.493084 61.488377 29.469748
61.490475 61.496723 29.039188
64.491638 61.471176 28.547344
67.48156 61.496082 27.967079
69.684853 61.466461 27.523663
2.4644706 63.574944 27.118382
4.6324363 64.263947 27.340588
7.4869261 64.448967 27.782839
10.512609 64.481293 28.224699
13.503895 64.498726 28.631109
16.483585 64.485832 28.978992
19.487091 64.525169 29.293642
22.498535 64.47377 29.559799
25.447702 64.793961 29.689857
28.40654 65.116203 29.761164
31.415705 65.365204 29.82542
34.53289 65.393181 29.88699
37.448578 65.523712 29.859463
40.639706 65.376457 29.866108
43.623844 65.249687 29.809862
46.574482 64.922852 29.72946
49.536469 64.580093 29.618643
52.487331 64.490273 29.376276
55.510185 64.483551 29.044247
58.494102 64.488647 28.650694
61.486763 64.467705 28.212906
64.499596 64.480263 27.692457
67.237427 63.984322 27.297522
69.377892 63.270332 27.08889
5.5835881 66.302582 27.053356
7.7960634 66.984428 27.245541
10.506654 67.50193 27.532045
13.482331 67.492455 27.943378
16.524733 67.50058 28.302792
19.499001 67.504265 28.610895
22.505018 67.469162 28.871592
25.485476 67.50901 29.063698
28.487667 67.478142 29.223417
31.47681 67.477852 29.318029
34.497066 67.5084 29.349669
37.490669 67.501816 29.364599
40.492805 67.492027 29.320438
43.499836 67.506218 29.219685
46.489193 67.469467 29.056448
49.486229 67.508331 28.825195
52.504028 67.516151 28.547771
55.501064 67.481796 28.203745
58.490936 67.500732 27.780664
61.368938 67.255707 27.408096
63.901993 66.558899 27.181646
11.177614 69.539375 27.108885
13.635155 70.143547 27.299334
16.501951 70.496231 27.558237
19.49544 70.501534 27.85058
22.454563 70.363213 28.145754
25.524557 70.541695 28.302454
28.510113 70.499672 28.456438
31.493195 70.468224 28.550428
34.516197 70.450203 28.590841
37.495701 70.49498 28.556353
40.499367 70.487091 28.487129
43.496208 70.484276 28.377583
46.511845 70.487907 28.193758
49.500519 70.499557 27.963247
52.499947 70.507813 27.665012
55.371616 70.220413 27.408041
58.119495 69.635933 27.192549
60.118336 69.154999 27.024
14.842 72.18 27.121
17.017721 72.445572 27.107851
19.624998 72.881462 27.249487
22.561195 73.2957 27.368235
25.537628 73.541809 27.478165
28.4874 73.491333 27.619024
31.504793 73.487839 27.704208
34.50909 73.49894 27.715097
37.516907 73.492729 27.69463
40.485992 73.504257 27.602871
43.478519 73.450737 27.495914
46.415333 73.194061 27.380924
49.320408 72.863037 27.253162
52.109978 72.416985 27.10924
25.932125 75.155815 27.041437
28.5875 75.333061 27.090717
31.593672 75.402756 27.143007
34.494598 75.49543 27.123703
37.438171 75.357086 27.132792
40.263824 75.298401 27.071503
42.567303 75.136909 27.066401
-39.681633 -36.405838 30.469398
-38.010178 -36.240425 31.822699
-39.317642 -34.754017 30.299778
-37.654163 -34.476784 31.786625
-39.18932 -31.474188 30.168892
-37.601185 -31.483385 31.733538
-39.137596 -28.495443 30.142069
-37.548229 -28.501268 31.695965
-39.087284 -25.804358 30.096571
-37.503033 -25.501774 31.601553
-35.931999 -24.97191 32.925541
-39.023499 -23.797501 30.026501
-37.45063 -22.52146 31.480579
-35.866814 -22.30052 32.875553
-37.359016 -19.519356 31.352936
-35.733509 -19.380827 32.787003
-37.234505 -16.520802 31.211107
-35.592781 -16.427856 32.67281
-37.091347 -13.506548 31.083817
-35.413872 -13.428768 32.559017
-36.969055 -10.517266 30.924192
-35.305611 -10.438887 32.403664
-36.82423 -7.5605369 30.764256
-35.068794 -7.4562545 32.30925
-36.650036 -4.5731063 30.604988
-34.909805 -4.4380598 32.115925
-36.419807 -1.6568902 30.415855
-34.620502 -1.4640485 31.951252
-17.122 -2.3555 32.063499
-36.210777 1.0522906 30.17561
-34.507046 1.5018408 31.579144
-32.79652 1.9025589 32.860706
-34.319996 4.4137635 31.179878
-32.474148 4.7126431 32.600918
-33.922142 7.3272395 30.827963
-32.020226 7.6372137 32.288685
-33.431828 10.134071 30.413368
-31.552576 10.545944 31.818974
-29.774376 11.500875 32.870373
-31.265966 13.336966 31.072542
-29.233467 13.768876 32.47543
-30.597075 15.955064 30.484779
-28.592287 16.568491 31.760666
-26.62211 17.436594 32.780365
-28.055794 19.196772 30.844337
-25.739027 19.727228 32.175968
-23.6555 20.740999 32.911999
-27.227636 21.30909 30.190546
-25.27664 22.258863 31.025408
-22.774981 22.780533 32.268909
-20.710365 23.671816 32.873909
-24.380217 24.285213 30.264215
-22.221815 25.231363 30.924442
-19.656425 25.742582 32.00515
-17.24662 26.521358 32.669659
-21.208334 27.169668 30.144333
-19.159573 27.865952 30.668173
-16.472145 28.521807 31.498573
-13.790069 29.091991 32.316051
-11.474615 29.763153 32.770229
-15.683126 30.411873 30.344656
-13.279782 31.089346 30.907555
-10.562042 31.576487 31.69404
-7.7168236 32.161907 32.355103
-5.4298801 32.676956 32.802959
74.408508 32.791901 32.919395
-9.8056479 33.435944 30.437243
-7.2563572 34.228672 30.801537
-4.5123911 34.591976 31.477039
-1.5878973 35.004105 32.100296
1.1328334 35.46463 32.614861
3.033 35.981998 32.846001
71.204231 35.265518 32.841751
73.457085 34.566151 32.546085
75.003998 33.473 32.480999
-6.2723751 36.327873 30.066376
-4.3162036 37.333614 30.33725
-1.5044324 37.526165 30.926439
1.4729378 37.533722 31.588657
4.4246583 37.681023 32.167042
7.3666005 38.124123 32.583817
9.6673431 38.62978 32.857906
68.243858 38.25375 32.87249
70.562279 37.547295 32.551109
73.18116 37.433369 32.035484
-3.5933278 39.701328 30.123888
-1.4673802 40.462208 30.439592
1.5050528 40.515884 31.038849
4.5004039 40.506405 31.615576
7.4970326 40.502502 32.147202
10.441554 40.530449 32.632401
12.874142 41.258862 32.868134
65.135941 41.243027 32.86525
67.523506 40.55241 32.581169
70.498833 40.493298 32.027218
72.846924 40.407833 31.568539
-0.77818412 43.104412 30.167118
1.5021762 43.491577 30.563923
4.4910178 43.503788 31.140104
7.4845939 43.50703 31.668083
10.47672 43.488201 32.158737
13.449498 43.467609 32.583427
16.144247 44.022186 32.839706
18.698845 44.805923 32.936077
61.892315 44.141903 32.854603
64.526009 43.510658 32.556671
67.50135 43.492443 32.049995
70.497231 43.490036 31.485403
72.640198 43.404278 31.053093
-0.132 45.056999 30.004
1.9391477 46.182293 30.202528
4.4921556 46.471146 30.629528
7.5234489 46.430988 31.161819
10.499147 46.510025 31.610981
13.51452 46.492088 32.042767
16.479851 46.510597 32.412075
19.379196 46.679741 32.712894
22.149334 47.293591 32.874294
24.384571 47.860142 32.946857
56.195145 47.645893 32.91547
58.683067 46.912403 32.777485
61.484108 46.503124 32.490852
64.49192 46.499577 32.02795
67.489235 46.481178 31.513094
70.502441 46.486454 30.930719
72.338417 46.309319 30.592455
2.7838571 48.226856 30.061571
4.8158545 49.187897 30.228418
7.4862704 49.47699 30.625677
10.485165 49.445004 31.094538
13.525204 49.531605 31.500536
16.502995 49.519314 31.870544
19.486416 49.466476 32.229771
22.497698 49.511684 32.507069
25.447674 49.576893 32.733421
28.31579 50.119987 32.862289
31.284723 50.661381 32.923576
34.664639 50.793911 32.981182
37.271198 50.9538 32.966599
44.140999 50.921749 32.971252
46.926998 50.673691 32.946705
49.730606 50.288601 32.852612
52.62009 49.890018 32.764297
55.497265 49.514267 32.60788
58.486561 49.483696 32.303135
61.485428 49.481983 31.920197
64.504982 49.5042 31.454571
67.503571 49.497944 30.939816
70.391891 49.402843 30.395107
72.122337 48.735249 30.174751
5.7270002 51.186714 30.056715
7.7889705 52.166351 30.216705
10.499628 52.488605 30.577915
13.491722 52.51791 30.98304
16.495268 52.509426 31.372953
19.52235 52.468853 31.712721
22.490446 52.492233 31.982182
25.529444 52.484325 32.235447
28.487955 52.517971 32.43354
31.492121 52.491573 32.586861
34.501244 52.464886 32.672081
37.500225 52.45211 32.713367
40.508362 52.536621 32.719532
43.505306 52.587502 32.683544
46.519329 52.527538 32.588715
49.510033 52.532852 32.406281
52.495171 52.503849 32.217495
55.513725 52.499542 31.950806
58.48531 52.494278 31.640949
61.490749 52.48782 31.264591
64.493645 52.50174 30.811777
67.326065 52.34148 30.363081
69.552963 51.563282 30.101688
8.8582497 54.208 30.043249
10.805397 54.933659 30.189648
13.489484 55.477222 30.454948
16.479204 55.497498 30.828632
19.494984 55.489597 31.161173
22.498293 55.491905 31.434944
25.503134 55.514019 31.666519
28.497663 55.579762 31.843483
31.517672 55.522087 32.00238
34.495476 55.504784 32.084583
37.49128 55.497879 32.122936
40.467304 55.552361 32.103634
43.498695 55.547134 32.059357
46.500408 55.513355 31.951012
49.525085 55.511787 31.767185
52.525974 55.499043 31.550102
55.509697 55.505264 31.266685
58.486454 55.503426 30.944357
61.477509 55.485909 30.555531
64.234955 55.000618 30.252781
66.400536 54.323154 30.057156
14.077026 57.683067 30.121473
16.6094 58.348301 30.30055
19.494724 58.509541 30.573221
22.47933 58.494461 30.847162
25.480448 58.46133 31.082632
28.515347 58.493332 31.274008
31.50948 58.488163 31.38353
34.500614 58.515663 31.450598
37.507408 58.501801 31.484261
40.502789 58.498653 31.469381
43.504776 58.496731 31.40707
46.510944 58.498219 31.279509
49.505337 58.492275 31.102642
52.499413 58.506256 30.860411
55.494854 58.494217 30.57029
58.326271 58.239925 30.302397
60.949108 57.539684 30.128359
17.568443 60.198444 30.055779
19.747507 60.678238 30.162327
22.577673 61.319767 30.262682
25.490795 61.512192 30.435644
28.491978 61.490486 30.617348
31.47941 61.502296 30.719341
34.497055 61.50703 30.79917
37.494488 61.485115 30.829041
40.491425 61.510883 30.796293
43.479202 61.495613 30.720095
46.474174 61.489075 30.585596
49.446152 61.454674 30.404686
52.339787 61.080254 30.261463
55.112728 60.522346 30.130869
57.049999 60.035 30.027
25.723999 63.415108 30.079
28.549129 63.680256 30.129137
31.558367 63.861843 30.189043
34.471851 63.916134 30.242226
37.53334 63.992611 30.247675
40.425419 63.910606 30.235355
43.407829 63.809711 30.180769
46.336926 63.460117 30.121685
48.685299 63.174095 30.059299
-36.337334 -36.145168 33.173668
-35.654499 -36.055 33.684502
-36.150188 -34.704388 33.113617
-34.513721 -34.43232 34.318607
-32.464035 -34.18816 35.660736
-36.086746 -31.5991 33.073147
-34.545055 -31.514904 34.221569
-32.39698 -31.605177 35.636753
-36.054386 -28.748304 33.040768
-34.52243 -28.472567 34.183922
-32.37949 -28.47117 35.618855
-36.004002 -26.301001 33.019001
-34.434784 -25.541325 34.124836
-32.246567 -25.462029 35.561989
-34.405254 -22.514025 33.978703
-32.076443 -22.45372 35.494068
-34.253471 -19.508383 33.92197
-32.023109 -19.426533 35.403488
-34.099426 -16.545801 33.847008
-31.816757 -16.479324 35.329681
-33.939159 -13.607677 33.731178
-31.637545 -13.504953 35.224651
-33.808762 -10.537787 33.567348
-31.551956 -10.427908 35.02573
-29.840776 -9.7818336 35.906445
-33.603992 -7.6017494 33.442581
-31.484671 -7.5232592 34.800671
-29.63913 -7.28824 35.791859
-33.419472 -4.6584458 33.308193
-31.540342 -4.5053082 34.468391
-29.327232 -4.3778815 35.68557
-33.185932 -1.9030358 33.135963
-31.509701 -1.50581 34.163391
-29.043299 -1.3795799 35.526794
-31.340475 1.435877 33.899693
-28.708811 1.535969 35.359585
-31.023235 4.4083519 33.654362
-28.512825 4.5325294 35.065559
-26.78307 5.1020327 35.857132
-30.587793 7.2401857 33.394989
-28.493065 7.494082 34.584686
-26.313509 7.6921568 35.684402
-30.209143 9.4930716 33.11507
-28.420925 10.438524 34.010929
-25.783819 10.621804 35.402935
-27.876793 13.259364 33.554951
-25.493008 13.494765 34.844856
-23.465349 13.96431 35.733299
-27.289762 15.495146 33.176102
-25.376478 16.392523 33.94445
-22.665979 16.627794 35.304607
-20.698126 17.591873 35.885372
-24.660927 18.737644 33.384972
-22.455252 19.411724 34.25275
-19.804008 19.727465 35.401859
-17.716726 20.718184 35.878181
-21.814299 21.777617 33.41803
-19.415943 22.428991 34.236778
-16.700245 22.725981 35.300327
-14.551761 23.553761 35.781998
-18.829359 24.382206 33.378155
-16.259462 25.262201 33.988762
-13.526687 25.543564 34.985401
-10.898004 26.26984 35.604095
-8.8870001 26.824001 35.959499
-15.300858 27.167715 33.149712
-13.164304 27.788912 33.594727
-10.439572 28.426247 34.245937
-7.6282268 28.766848 35.044991
-4.8055658 29.394835 35.596127
-2.9123335 29.841333 35.897999
68.788666 29.902334 35.852665
70.694748 29.613121 35.735546
73.336449 29.504553 35.58321
-9.5006151 30.286154 33.157539
-7.29182 30.778549 33.624153
-4.4055977 31.354534 34.187523
-1.5953267 31.64303 34.881939
1.3546618 32.1465 35.370861
3.9435749 32.646217 35.732899
65.346397 32.572521 35.742088
67.650208 31.754023 35.211243
70.474762 31.495264 34.443737
73.316383 31.461325 34.043831
-3.5270002 33.152874 33.070374
-1.2600384 33.51672 33.501179
1.6651924 34.104969 33.901268
4.500773 34.473911 34.429928
7.4223223 34.794449 34.977978
10.330709 35.218494 35.408325
12.950381 35.661114 35.756882
59.821499 35.899498 35.922501
61.882149 35.29726 35.538208
64.579887 34.597656 34.926003
67.52417 34.538113 33.944969
70.206589 34.194916 33.320827
72.332436 33.317501 33.082214
5.2118258 36.245781 33.242908
7.7142186 36.645679 33.568329
10.649126 37.365231 33.809357
13.501822 37.524635 34.37682
16.407343 37.667301 34.930489
19.343702 38.032879 35.27375
22.29575 38.419617 35.567818
25.115585 38.785614 35.84169
53.678398 38.823799 35.926601
55.790092 38.399441 35.615601
58.704109 37.758869 35.160862
61.537739 37.564129 34.45649
64.508545 37.515228 33.750263
67.175583 37.228588 33.271641
69.299362 36.285995 33.047543
11.7545 39.281101 33.053902
13.791621 40.137699 33.213512
16.49161 40.511124 33.510971
19.497992 40.546749 33.898205
22.502989 40.605927 34.251091
25.483475 40.569561 34.676327
28.430702 40.708961 34.985989
31.441317 41.012371 35.125301
34.4431 41.162388 35.335594
37.499687 41.327679 35.439148
40.511215 41.446232 35.467411
43.524399 41.348423 35.51757
46.599262 41.310699 35.339363
49.583515 40.916092 35.281498
52.536869 40.628578 35.001205
55.521103 40.564407 34.518471
58.507797 40.527184 34.033581
61.51828 40.516655 33.571323
64.219307 40.130325 33.219109
66.275566 39.324146 33.037712
14.876 42.189499 33.030998
16.894186 42.881863 33.155659
19.538521 43.424465 33.331661
22.48741 43.502487 33.602631
25.490417 43.504894 33.866562
28.503605 43.501801 34.105949
31.504089 43.506443 34.275593
34.505383 43.509068 34.428394
37.510647 43.524734 34.512123
40.508724 43.535446 34.558113
43.449333 43.447964 34.559166
46.513985 43.558929 34.438938
49.501144 43.503647 34.263275
52.499573 43.510937 34.032413
55.520416 43.489731 33.75481
58.516769 43.505398 33.419033
61.142281 42.932148 33.169102
63.203671 42.129997 33.035664
20.287119 45.399269 33.086273
22.777889 45.975853 33.191071
25.547497 46.445229 33.329575
28.501104 46.49305 33.534451
31.466976 46.427147 33.714096
34.502369 46.468231 33.819889
37.501163 46.495853 33.897091
40.490612 46.487518 33.945705
43.504955 46.497002 33.915512
46.500294 46.510303 33.811607
49.502186 46.491482 33.647259
52.502934 46.495861 33.453075
55.363876 46.310093 33.254425
58.024387 45.592827 33.112854
26.395308 48.154995 33.094463
28.743511 48.706818 33.141689
31.520994 49.208309 33.196648
34.538658 49.417114 33.2397
37.464237 49.456711 33.288849
40.559933 49.462315 33.340851
43.441383 49.384159 33.334229
46.443562 49.23827 33.265736
49.346935 48.869896 33.176849
52.128529 48.496471 33.084904
54.136002 48.0905 33.004501
37.431999 51.022999 33.005001
40.80164 51.074451 33.034367
43.0131 51.177498 33.016796
24.360167 57.351166 35.550003
-30.947163 -34.236137 36.589207
-28.560101 -34.127842 37.876087
-26.707403 -34.044861 38.821571
-30.911386 -31.639227 36.493542
-28.481432 -31.561979 37.786579
-26.51136 -31.467892 38.772614
-30.892221 -28.525539 36.465889
-28.468651 -28.49777 37.713955
-26.419531 -28.34733 38.719398
-30.748314 -25.549484 36.435619
-28.498966 -25.525566 37.600357
-26.270744 -25.288134 38.661865
-30.630697 -22.635836 36.329815
-28.487024 -22.512236 37.435089
-26.083202 -22.438562 38.589245
-30.510403 -19.624628 36.277878
-28.486279 -19.48629 37.296402
-25.896982 -19.499998 38.518234
-30.341803 -16.754774 36.184055
-28.456985 -16.535429 37.130402
-25.653955 -16.448017 38.435341
-30.177759 -13.819756 36.08493
-28.486526 -13.516125 36.915627
-25.492601 -13.422146 38.294964
-23.827564 -12.845739 38.933346
-30.0835 -11.3225 36.026497
-28.39225 -10.500431 36.734764
-25.480749 -10.494053 38.059811
-23.62075 -10.277306 38.837315
-28.168129 -7.567533 36.587673
-25.488186 -7.4887514 37.782398
-23.244036 -7.3780894 38.701439
-27.85862 -4.6190395 36.452477
-25.48024 -4.5147629 37.516911
-22.875431 -4.3925862 38.561924
-27.56612 -1.6293098 36.294357
-25.523769 -1.4530243 37.19511
-22.555489 -1.4369004 38.401207
-20.833454 -0.4510909 38.939816
-27.271593 1.2094325 36.132675
-25.480597 1.4879156 36.876968
-22.506956 1.5004804 38.072083
-20.492086 1.701372 38.807148
-25.360531 4.4602818 36.568054
-22.524883 4.4942608 37.713165
-19.993835 4.6347451 38.633137
-24.869421 7.3428535 36.407967
-22.483572 7.5037255 37.336288
-19.561417 7.5483937 38.409454
-17.675547 8.238637 38.900642
-24.402149 10.04787 36.167641
-22.5147 10.496726 36.844685
-19.515184 10.484314 37.985359
-17.129829 10.773765 38.72578
-22.120119 13.313824 36.500793
-19.489603 13.491516 37.456684
-16.526663 13.511776 38.457352
-14.576832 14.287861 38.891388
-21.485973 15.591624 36.225426
-19.428053 16.40947 36.775974
-16.49622 16.500481 37.823051
-13.795571 16.744669 38.630219
-11.849167 17.738001 38.982666
-18.646984 18.801905 36.271557
-16.447319 19.444073 36.913174
-13.503941 19.498547 37.918571
-10.840999 19.881037 38.627804
-8.8725004 20.769167 38.944168
-15.71219 21.600897 36.291656
-13.380482 22.339426 36.799923
-10.527265 22.456503 37.737736
-7.6809263 22.735716 38.500648
-5.3499136 23.593687 38.834084
-12.469176 24.325706 36.159351
-10.185889 25.013485 36.596935
-7.4952183 25.512239 37.205235
-4.5309129 25.556171 38.070286
-1.7163494 26.119633 38.567303
0.69917399 26.750216 38.842869
65.373032 26.542448 38.837727
67.572418 26.242832 38.519703
70.479919 26.188 38.378002
73.097504 26.157629 38.283318
-6.9558611 27.422518 36.285957
-4.3447375 27.999802 36.720333
-1.4956037 28.484589 37.233017
1.4828686 28.510572 38.019287
4.3203669 29.042215 38.414623
7.1623178 29.555382 38.767372
9.1809998 29.974499 38.921997
62.036373 29.329214 38.710384
64.55941 28.579 38.167381
67.484474 28.440331 37.209732
70.436852 28.138756 36.900444
73.198051 28.031065 36.790009
-0.83596557 30.273859 36.219166
1.6614864 30.696651 36.607018
4.6189508 31.233784 37.008381
7.4885464 31.519875 37.539402
10.395555 31.704893 38.134945
13.355799 32.228386 38.439869
16.231232 32.626347 38.767071
18.241001 32.945499 38.941002
56.364071 32.627789 38.798
58.750019 31.944988 38.49324
61.50061 31.480137 37.853973
64.354057 31.335875 36.866329
66.761253 30.526245 36.305313
5.9899998 33.070999 36.025002
7.9077611 33.339172 36.298153
10.670684 33.828671 36.608162
13.604817 34.277527 36.968079
16.500336 34.465687 37.470718
19.405207 34.616768 37.998459
22.444471 35.002144 38.256451
25.366184 35.322762 38.56599
28.198252 35.650452 38.734547
30.774857 35.867996 38.882137
44.603001 35.965 38.980999
46.901485 35.794998 38.896641
