# This PCD file was generated using the MATLAB® pcwrite function
# from Computer Vision Toolbox®.
# .PCD v.7 - Point Cloud Data file format
VERSION .7
FIELDS x y z
SIZE 4 4 4
TYPE F F F
COUNT 1 1 1
WIDTH 1513
HEIGHT 1
VIEWPOINT 0 0 0 1 0 0 0
POINTS 1513
DATA ascii
-21.682026 16.717625 461.222443
-18.731527 15.927413 461.896210
-18.193258 15.930369 461.990723
-17.654804 15.933334 462.085236
-17.117941 15.667017 462.231506
-16.580782 15.400556 462.377869
-16.041656 15.403449 462.472504
-15.502342 15.406350 462.567200
-14.962837 15.409259 462.661896
-14.424642 15.142529 462.808502
-13.884698 15.145406 462.903290
-13.344561 15.148291 462.998138
-12.804230 15.151185 463.092987
-12.264980 14.884182 463.239838
-11.722981 15.156997 463.282837
-8.748175 14.362273 463.961761
-8.205978 14.365082 464.056976
-7.393069 14.098776 464.251984
-6.849590 14.372141 464.295135
-3.862539 13.303989 465.029083
-3.318232 13.306655 465.124695
-2.773709 13.309329 465.220337
-2.228971 13.312011 465.316010
0.771376 12.240278 466.052979
1.317777 12.242786 466.149017
1.864403 12.245301 466.245056
2.411255 12.247822 466.341156
5.425406 11.172374 467.081268
5.973987 11.174711 467.177704
6.522802 11.177054 467.274170
7.071853 11.179403 467.370667
9.548668 10.371064 467.964294
10.375718 10.101177 468.162506
10.926688 10.103333 468.259399
13.966044 9.294175 468.952515
14.520413 9.022304 469.102966
15.073489 9.024258 469.200256
15.626819 9.026217 469.297577
16.180403 9.028181 469.394989
19.238260 7.940859 470.145111
19.793777 7.942604 470.242889
22.864071 6.851472 470.995941
23.703081 6.578301 471.196930
24.261053 6.579758 471.295166
26.784369 5.758580 471.899475
27.627113 5.484354 472.101288
28.190466 5.209298 472.253937
28.750977 5.210451 472.352722
29.315090 4.935141 472.505524
29.879623 4.659638 472.658478
30.444574 4.383942 472.811523
31.291012 4.108500 473.014221
31.853354 4.109397 473.113373
32.419682 3.833213 473.266754
33.268074 3.557216 473.469910
33.835438 3.280605 473.623566
34.685303 3.004112 473.827087
35.253712 2.727070 473.980988
36.105064 2.450076 474.184875
36.674526 2.172599 474.339050
37.527382 1.895099 474.543304
38.093506 1.895456 474.643219
39.235752 1.339278 474.952423
-82.162979 27.478289 448.461945
-81.642403 27.481672 448.553223
-81.121750 27.485067 448.644501
-80.601021 27.488474 448.735809
-80.080208 27.491892 448.827148
-79.559311 27.495323 448.918457
-79.038330 27.498766 449.009796
-78.517273 27.502220 449.101166
-77.996132 27.505688 449.192535
-77.474907 27.509169 449.283905
-76.953590 27.512659 449.375305
-76.439568 27.253626 449.516144
-75.918030 27.257111 449.607574
-75.396416 27.260609 449.699005
-74.874702 27.264118 449.790466
-74.352913 27.267641 449.881927
-73.831024 27.271175 449.973419
-73.309052 27.274723 450.064911
-72.786995 27.278284 450.156433
-72.264839 27.281857 450.247955
-71.742592 27.285442 450.339478
-70.965904 27.027924 450.526428
-70.443375 27.031507 450.618011
-69.920753 27.035105 450.709595
-69.398041 27.038715 450.801208
-68.620422 26.781036 450.988342
-67.835876 26.786455 451.125854
-67.312721 26.790085 451.217529
-66.789474 26.793724 451.309235
-66.266121 26.797379 451.400970
-65.742676 26.801046 451.492706
-65.219124 26.804726 451.584442
-64.695473 26.808418 451.676208
-64.171722 26.812126 451.768005
-63.647861 26.815845 451.859802
-62.867966 26.557909 452.047363
-62.343800 26.561626 452.139221
-61.819523 26.565357 452.231079
-61.295143 26.569101 452.322968
-60.770657 26.572859 452.414856
-60.246059 26.576628 452.506775
-59.715572 26.844164 452.548767
-59.190807 26.847996 452.640717
-58.665932 26.851843 452.732666
-58.140945 26.855701 452.824646
-57.615849 26.859575 452.916626
-57.096165 26.599531 453.058655
-56.565311 26.867363 453.100647
-55.782509 26.609219 453.288757
-55.256844 26.613115 453.380859
-54.731064 26.617027 453.472961
-54.205166 26.620955 453.565063
-53.679146 26.624893 453.657196
-53.153008 26.628847 453.749359
-52.626751 26.632814 453.841522
-52.100372 26.636795 453.933716
-49.476242 26.127817 454.495514
-48.953777 25.867147 454.638153
-48.167320 25.608332 454.827057
-47.639671 25.612276 454.919464
-47.111897 25.616234 455.011902
-46.583988 25.620205 455.104370
-43.686668 25.111944 455.714264
-43.157791 25.115927 455.806915
-42.628773 25.119921 455.899567
-42.099621 25.123926 455.992249
-41.574398 24.862537 456.135498
-38.933201 24.351259 456.700745
-38.402897 24.355238 456.793640
-37.872452 24.359228 456.886536
-37.341854 24.363234 456.979462
-36.811111 24.367252 457.072418
-36.014717 24.373306 457.211914
-33.101494 23.596907 457.876404
-32.569382 23.600903 457.969604
-32.037109 23.604912 458.062836
-31.504683 23.608934 458.156097
-30.972095 23.612968 458.249359
-28.045551 23.101740 458.864990
-27.511806 23.105772 458.958466
-26.977898 23.109818 459.052002
-26.446445 22.846832 459.196655
-23.510382 22.334387 459.814209
-22.975035 22.338390 459.907990
-22.173901 22.076853 460.100006
-21.638063 22.080841 460.193848
-21.102049 22.084843 460.287750
-18.154388 21.571074 460.907593
-17.618855 21.306932 461.053223
-17.081318 21.310884 461.147369
-16.543594 21.314848 461.241577
-16.005686 21.318825 461.335815
-13.317299 20.533010 461.962433
-12.778081 20.536911 462.056915
-12.238669 20.540823 462.151428
-11.699062 20.544746 462.245941
-11.159258 20.548683 462.340515
-8.460639 19.491474 463.021393
-7.919411 19.495277 463.116241
-7.377979 19.499090 463.211121
-6.836342 19.502914 463.306061
-6.294499 19.506750 463.401001
-3.311587 18.718195 464.080170
-2.768207 18.721945 464.175415
-2.224612 18.725706 464.270691
-1.680801 18.729479 464.365997
1.042039 17.666208 465.052307
1.587396 17.669827 465.147919
2.132976 17.673454 465.243591
2.678782 17.677094 465.339264
3.224813 17.680744 465.434998
6.234762 16.615713 466.172363
6.782521 16.619204 466.268433
7.605417 16.352854 466.465210
10.353164 15.554227 467.104797
10.902945 15.557557 467.201263
11.452969 15.560896 467.297760
12.004527 15.291954 467.447113
12.553752 15.567601 467.490845
15.316634 14.493601 468.186310
15.868884 14.496772 468.283234
16.421389 14.499952 468.380188
16.974148 14.503140 468.477203
20.027592 13.426925 469.224426
20.582279 13.429920 469.321808
23.648092 12.350090 470.071899
24.207401 12.078563 470.223145
24.764402 12.081300 470.320984
25.603216 11.810880 470.521362
28.407204 10.724371 471.226532
28.966595 10.726833 471.324829
29.529520 10.454017 471.476959
30.092859 10.181017 471.629211
30.936935 9.908975 471.830841
31.781849 9.636687 472.032684
32.343201 9.638919 472.131378
32.908497 9.365238 472.284088
33.474213 9.091367 472.436920
34.321674 8.818333 472.639343
35.169991 8.545046 472.841980
36.019173 8.271505 473.044800
36.587143 7.996776 473.198181
37.437805 7.722754 473.401367
38.006828 7.447605 473.555023
38.858994 7.173097 473.758575
39.429073 6.897524 473.912506
39.999599 6.621754 474.066559
40.565983 6.623296 474.166290
-80.960373 32.981808 447.610840
-80.433189 33.247124 447.652679
-79.920914 32.989902 447.792877
-79.401070 32.993973 447.883881
-78.881134 32.998055 447.974915
-78.361122 33.002155 448.065948
-77.841026 33.006268 448.157013
-77.320839 33.010395 448.248077
-76.800575 33.014538 448.339172
-76.280220 33.018700 448.430267
-75.759789 33.022873 448.521362
-75.239258 33.027061 448.612488
-74.718651 33.031265 448.703613
-74.197952 33.035484 448.794739
-73.677162 33.039719 448.885895
-72.902611 32.784328 449.072052
-72.381546 32.788570 449.163239
-71.860397 32.792828 449.254456
-71.339149 32.797100 449.345703
-70.817810 32.801388 449.436920
-70.296379 32.805691 449.528198
-69.774857 32.810009 449.619446
-69.253235 32.814346 449.710754
-68.731522 32.818695 449.802032
-68.209709 32.823063 449.893341
-67.694122 32.565300 450.034210
-67.172066 32.569664 450.125580
-66.649910 32.574047 450.216919
-66.127655 32.578442 450.308319
-65.605309 32.582855 450.399719
-65.082855 32.587284 450.491119
-64.560295 32.591728 450.582550
-64.043633 32.333763 450.723633
-63.520821 32.338207 450.815125
-62.997906 32.342667 450.906616
-62.474892 32.347141 450.998108
-59.596394 32.372047 451.501648
-59.078209 32.113827 451.643066
-58.548851 32.381229 451.684875
-58.024914 32.385841 451.776520
-57.500866 32.390476 451.868164
-56.976704 32.395123 451.959839
-56.457710 32.136803 452.101410
-55.933270 32.141449 452.193115
-55.408714 32.146111 452.284851
-54.884045 32.150787 452.376617
-54.359257 32.155483 452.468384
-53.834351 32.160198 452.560181
-53.309326 32.164928 452.651978
-52.784180 32.169674 452.743805
-52.258915 32.174435 452.835663
-51.733528 32.179218 452.927521
-51.208019 32.184013 453.019409
-48.333664 31.155979 453.725677
-47.548317 30.899261 453.913971
-47.021553 30.904001 454.006104
-46.494659 30.908758 454.098236
-45.967632 30.913532 454.190369
-45.444771 30.654264 454.332825
-44.917427 30.659033 454.425018
-44.389954 30.663816 454.517242
-43.862347 30.668619 454.609497
-43.074757 30.411568 454.798279
-42.546757 30.416370 454.890594
-42.018620 30.421190 454.982910
-41.490345 30.426027 455.075287
-40.961929 30.430882 455.167664
-40.433372 30.435751 455.260071
-37.530888 29.933268 455.869751
-37.004814 29.673265 456.012909
-36.475021 29.678137 456.105530
-35.945084 29.683025 456.198181
-33.034019 29.179630 456.809540
-32.502991 29.184540 456.902374
-31.971806 29.189466 456.995239
-31.440466 29.194410 457.088135
-30.646086 28.936300 457.278290
-30.114296 28.941242 457.371246
-27.191776 28.436880 457.984833
-26.658827 28.441839 458.078003
-26.125710 28.446815 458.171204
-25.325720 28.454309 458.311035
-22.395596 27.682753 458.977600
-21.860952 27.687721 459.071045
-21.326136 27.692707 459.164551
-20.793144 27.431019 459.309235
-20.257921 27.435987 459.402802
-17.314302 26.929464 460.020538
-16.777794 26.934443 460.114319
-15.974222 26.674673 460.306427
-15.437194 26.679642 460.400299
-12.483756 25.904196 461.071747
-11.945326 25.909119 461.165894
-11.406700 25.914059 461.260040
-10.868928 25.651073 461.405823
-8.173928 24.870947 462.032532
-7.633691 24.875790 462.127014
-7.093250 24.880646 462.221527
-6.552604 24.885517 462.316040
-5.741247 24.892853 462.457916
-2.763000 24.113140 463.134552
-2.220511 24.117971 463.229431
-1.406491 23.856047 463.423798
-0.863345 24.130117 463.466766
2.128189 23.078632 464.198273
2.672873 23.083376 464.293549
3.217782 23.088135 464.388855
3.762917 23.092907 464.484222
6.494759 22.035849 465.170929
7.041498 22.040480 465.266571
7.588472 22.045122 465.362274
10.605498 20.987223 466.099518
11.154248 20.991722 466.195557
11.703241 20.996237 466.291656
12.528499 20.731771 466.488495
15.561237 19.669737 467.229309
16.112501 19.674053 467.325836
16.664021 19.678383 467.422394
19.155067 18.881119 468.016388
19.986937 18.614943 468.214722
20.540497 18.619110 468.311676
21.094318 18.623289 468.408691
21.648405 18.627480 468.505737
24.155325 17.554071 469.155884
24.991777 17.286743 469.355255
25.548040 17.290697 469.452728
26.104580 17.294661 469.550262
29.186077 15.946746 470.354919
30.027376 15.678064 470.555420
30.586512 15.681722 470.653473
31.149279 15.410954 470.805176
31.992479 15.141783 471.006104
32.836517 14.872378 471.207214
33.681393 14.602737 471.408539
34.527119 14.332858 471.610046
35.092674 14.061072 471.762421
35.939854 13.790741 471.964294
36.787891 13.520169 472.166321
37.636791 13.249353 472.368591
38.486561 12.978293 472.571045
39.337204 12.706985 472.773682
39.906246 12.433932 472.926941
40.758392 12.162156 473.129944
-67.072983 36.759167 449.333496
-64.441696 37.830238 449.591248
-63.920010 37.835384 449.682373
-63.398216 37.840549 449.773529
-62.876320 37.845734 449.864685
-62.354317 37.850937 449.955872
-61.832211 37.856159 450.047058
-61.309998 37.861404 450.138275
-60.793179 37.604912 450.279114
-60.270706 37.610157 450.370361
-59.748119 37.615421 450.461639
-59.225430 37.620705 450.552948
-58.702625 37.626011 450.644257
-58.184986 37.369358 450.785248
-57.661911 37.374664 450.876617
-57.138725 37.379990 450.967987
-56.615429 37.385338 451.059357
-56.092014 37.390701 451.150757
-53.478065 37.155476 451.657837
-52.953903 37.160919 451.749359
-52.429619 37.166386 451.840881
-51.905216 37.171871 451.932434
-51.380692 37.177376 452.024017
-50.598270 36.923077 452.211334
-47.981354 36.425156 452.769714
-47.455746 36.430695 452.861450
-46.930008 36.436253 452.953247
-46.404144 36.441833 453.045013
-45.878147 36.447430 453.136841
-45.356155 36.189938 453.278778
-44.833942 35.932343 453.420776
-44.307453 35.937920 453.512695
-43.780827 35.943520 453.604614
-43.254066 35.949139 453.696564
-42.467556 35.694187 453.884705
-41.940407 35.699814 453.976715
-41.413116 35.705463 454.068756
-40.885689 35.711132 454.160797
-40.358116 35.716820 454.252869
-39.830406 35.722527 454.344971
-36.932209 35.226448 454.952667
-36.403461 35.232204 455.044922
-35.874565 35.237980 455.137207
-35.345524 35.243774 455.229523
-34.551674 35.252506 455.368042
-31.914787 34.224110 456.032440
-31.384398 34.229885 456.125000
-30.853849 34.235676 456.217590
-30.323145 34.241489 456.310181
-29.792280 34.247322 456.402802
-29.263962 33.988384 456.546143
-28.732725 33.994213 456.638824
-28.201326 34.000061 456.731567
-27.406462 33.743881 456.921448
-26.874603 33.749733 457.014221
-26.342581 33.755604 457.107056
-25.810390 33.761497 457.199890
-25.014111 33.505135 457.390076
-22.353247 33.003735 457.956879
-21.819624 33.009636 458.049957
-21.285828 33.015556 458.143097
-20.751854 33.021500 458.236267
-19.952417 32.764629 458.427063
-17.283091 31.996101 459.046997
-16.747561 32.001999 459.140442
-16.211845 32.007912 459.233887
-15.675945 32.013847 459.327393
-15.139856 32.019802 459.420929
-14.602222 32.292210 459.463226
-11.653893 31.258572 460.183655
-11.116213 31.264521 460.277466
-10.310284 31.006460 460.469666
-7.619277 30.234278 461.094116
-7.079893 30.240166 461.188232
-6.540305 30.246071 461.282379
-6.000511 30.251993 461.376556
-3.299292 29.478111 462.003143
-2.758086 29.483990 462.097595
-2.216667 29.489885 462.192078
-1.404243 29.230553 462.385651
-0.862234 29.236441 462.480255
-0.320005 29.510660 462.523010
2.395472 28.197313 463.256378
2.939236 28.203108 463.351288
3.483225 28.208921 463.446228
6.208503 27.430449 464.077942
6.754722 27.166777 464.225372
7.300532 27.172487 464.320648
7.846577 27.178215 464.415985
8.392856 27.183958 464.511353
8.939371 27.189720 464.606750
11.954343 26.141357 465.341766
12.502641 26.146997 465.437531
15.529016 25.095625 466.175140
16.079147 25.101133 466.271240
16.629532 25.106659 466.367371
17.180170 25.112198 466.463562
19.945368 24.054710 467.156250
20.497778 24.060102 467.252747
21.050447 24.065510 467.349304
21.603382 24.070930 467.445923
22.433279 24.079090 467.590912
25.494511 22.748260 468.388702
26.049877 22.753489 468.485748
26.883444 22.761356 468.631439
29.121407 21.691061 469.233490
31.645149 20.620499 469.886078
32.487030 20.354202 470.086212
33.329742 20.087683 470.286530
33.889641 20.092455 470.384491
34.453453 19.823299 470.536072
35.017681 19.553970 470.687775
35.862915 19.286776 470.888672
36.709000 19.019352 471.089783
37.555939 18.751698 471.291077
38.122391 18.481579 471.443298
38.970798 18.213484 471.644928
39.820072 17.945156 471.846771
40.670223 17.676592 472.048798
41.238945 17.405663 472.201599
-79.611465 44.186882 445.683868
-79.093666 44.192261 445.774261
-78.575783 44.197662 445.864685
-78.057816 44.203079 445.955109
-77.539764 44.208523 446.045563
-77.021629 44.213982 446.136017
-76.503410 44.219463 446.226471
-75.985107 44.224964 446.316925
-75.214043 43.973476 446.501709
-74.695473 43.978996 446.592224
-74.176811 43.984539 446.682739
-73.658066 43.990101 446.773285
-73.139229 43.995682 446.863831
-72.620308 44.001286 446.954407
-72.101288 44.006912 447.044983
-71.588425 43.752514 447.184692
-71.069176 43.758148 447.275330
-70.549835 43.763802 447.365936
-70.030403 43.769478 447.456573
-69.510872 43.775177 447.547241
-68.985237 44.041103 447.588684
-68.471535 43.786636 447.728577
-67.951714 43.792397 447.819244
-67.431801 43.798180 447.909943
-66.911797 43.803982 448.000671
-66.391685 43.809811 448.091400
-63.534824 43.581638 448.640015
-63.019512 43.326897 448.780243
-62.498547 43.332817 448.871124
-61.977478 43.338760 448.961975
-61.456303 43.344727 449.052887
-60.940346 43.089855 449.193237
-60.418911 43.095829 449.284180
-59.897366 43.101826 449.375122
-59.375713 43.107845 449.466095
-58.853951 43.113884 449.557068
-58.332077 43.119946 449.648071
-57.554096 42.867954 449.834137
-57.031898 42.874039 449.925201
-56.509586 42.880142 450.016266
-55.987160 42.886269 450.107330
-55.464619 42.892422 450.198425
-54.941959 42.898594 450.289551
-52.336086 42.406685 450.844818
-51.812626 42.412918 450.936035
-51.289043 42.419174 451.027313
-50.765339 42.425457 451.118591
-50.241508 42.431759 451.209869
-47.628860 41.939655 451.766357
-46.845924 41.687111 451.953430
-46.321003 41.693470 452.044922
-45.795956 41.699848 452.136414
-45.270775 41.706257 452.227905
-44.486679 41.453587 452.415222
-43.961117 41.460011 452.506775
-43.435425 41.466454 452.598389
-42.909592 41.472923 452.690002
-42.383629 41.479416 452.781616
-41.861221 41.223370 452.923370
-41.334930 41.229870 453.015045
-40.808502 41.236389 453.106781
-40.281937 41.242935 453.198486
-39.495312 40.990009 453.386292
-38.971794 40.733704 453.528259
-38.444637 40.740246 453.620117
-37.917336 40.746811 453.711975
-37.389885 40.753403 453.803833
-36.601685 40.500233 453.991943
-36.073826 40.506840 454.083893
-35.545815 40.513466 454.175873
-35.017654 40.520119 454.267853
-34.489346 40.526791 454.359863
-33.960884 40.533489 454.451904
-31.324635 39.776512 455.063751
-30.795103 39.783218 455.155975
-30.265415 39.789951 455.248230
-29.735571 39.796703 455.340485
-27.091171 39.038567 455.954010
-26.560207 39.045326 456.046448
-26.029079 39.052109 456.138947
-25.497784 39.058914 456.231476
-24.966320 39.065742 456.324005
-24.170969 38.811611 456.513580
-21.513422 38.316616 457.078552
-20.980524 38.323479 457.171356
-20.447451 38.330364 457.264160
-19.914198 38.337276 457.356995
-17.249882 37.576565 457.974518
-16.715399 37.583469 458.067566
-16.182184 37.325012 458.211700
-15.647281 37.331913 458.304810
-15.112193 37.338837 458.397980
-14.576916 37.345783 458.491180
-14.040195 37.618332 458.533295
-11.364304 36.590202 459.204529
-10.827537 36.597160 459.297974
-10.022913 36.341511 459.489471
-9.485604 36.348473 459.583038
-6.528542 35.587532 460.252289
-5.989771 35.594486 460.346100
-5.450795 35.601460 460.439941
-2.483494 34.571854 461.162933
-1.942952 34.578762 461.257050
-1.402195 34.585690 461.351227
-0.861224 34.592644 461.445404
-0.320032 34.332195 461.591309
2.661554 33.567219 462.265717
3.204379 33.574116 462.360229
3.747429 33.581032 462.454803
4.562895 33.323357 462.648621
7.285718 32.552753 463.278381
7.830696 32.559608 463.373291
8.375907 32.566479 463.468262
8.921354 32.573372 463.563263
9.467037 32.580284 463.658295
12.477510 31.542009 464.390594
13.024969 31.548826 464.485962
13.846617 31.559088 464.629059
16.597700 30.244514 465.368958
17.147295 30.251184 465.464722
17.697142 30.257875 465.560516
18.522390 30.267946 465.704315
21.285889 29.219627 466.394928
21.837894 29.226217 466.491150
22.668661 28.965311 466.688293
25.445156 27.913338 467.381897
25.999445 27.919756 467.478546
26.554007 27.926193 467.575256
29.064671 26.867895 468.223145
29.902266 26.605228 468.421814
30.462143 26.339260 468.572083
31.301119 26.076202 468.771088
31.858725 26.082355 468.868378
32.419918 25.815990 469.018951
32.981518 25.549459 469.169647
33.540100 25.555532 469.267120
34.102455 25.288788 469.417969
34.944969 25.024866 469.617767
35.788319 24.760733 469.817749
36.352264 24.493433 469.968994
37.197048 24.228889 470.169312
38.042683 23.964127 470.369812
38.889172 23.699142 470.570496
39.455338 23.431082 470.722290
40.017780 23.436802 470.820526
40.584736 23.168512 470.972473
41.152119 22.900049 471.124573
41.715591 22.905678 471.222992
-78.692947 49.636585 444.792999
-78.175980 49.642643 444.883148
-77.658936 49.648724 444.973267
-77.141800 49.654827 445.063416
-76.624580 49.660954 445.153595
-76.107269 49.667103 445.243744
-75.589874 49.673275 445.333923
-75.072395 49.679470 445.424133
-74.554825 49.685688 445.514343
-74.043404 49.432911 445.653503
-73.525612 49.439144 445.743744
-73.007729 49.445400 445.833984
-72.489761 49.451679 445.924255
-71.971695 49.457981 446.014526
-71.453545 49.464310 446.104797
-70.935295 49.470661 446.195099
-70.416954 49.477036 446.285431
-69.898521 49.483433 446.375732
-69.385834 49.230503 446.515167
-68.867165 49.236916 446.605530
-68.348396 49.243351 446.695892
-67.575760 48.993549 446.880615
-67.056709 49.000011 446.971039
-66.537552 49.006496 447.061462
-66.018303 49.013008 447.151886
-65.504478 48.759869 447.291565
-64.979500 49.026104 447.332825
-64.459946 49.032688 447.423309
-63.940289 49.039299 447.513794
-63.420532 49.045933 447.604309
-62.900669 49.052589 447.694824
-62.385960 48.799389 447.834656
-61.865845 48.806065 447.925232
-61.345619 48.812759 448.015808
-60.825291 48.819485 448.106415
-60.304852 48.826233 448.197021
-59.523994 48.836399 448.332947
-56.673073 48.093121 448.980072
-56.151615 48.099960 449.070831
-55.630039 48.106827 449.161621
-55.108353 48.113720 449.252411
-54.586548 48.120636 449.343231
-54.069202 47.866970 449.483612
-53.547119 47.873901 449.574463
-53.024914 47.880856 449.665344
-52.502590 47.887836 449.756256
-51.980148 47.894848 449.847168
-51.200596 47.644550 450.033203
-50.677803 47.651585 450.124176
-50.154888 47.658646 450.215149
-49.631847 47.665730 450.306152
-47.018749 47.440350 450.811188
-46.498852 47.186275 450.952118
-45.974831 47.193462 451.043243
-45.450680 47.200680 451.134430
-44.926395 47.207920 451.225616
-44.401978 47.215187 451.316833
-43.615105 47.226139 451.453674
-41.000446 46.477753 452.060059
-40.474869 46.485100 452.151459
-39.949154 46.492466 452.242859
-39.423298 46.499863 452.334320
-38.900620 46.245274 452.475830
-38.374432 46.252682 452.567322
-37.851337 45.997978 452.708923
-37.324818 46.005398 452.800476
-36.798149 46.012840 452.892029
-36.010956 45.761738 453.079590
-35.483875 45.769207 453.171234
-34.956642 45.776703 453.262878
-34.429264 45.784222 453.354553
-33.901733 45.791767 453.446259
-33.371197 46.061874 453.487762
-30.741234 45.049129 454.147919
-30.212482 45.056732 454.239838
-29.683573 45.064362 454.331787
-29.154505 45.072018 454.423737
-26.513578 44.320793 455.035309
-25.983393 44.328472 455.127441
-25.453041 44.336178 455.219604
-24.922523 44.343910 455.311798
-24.391836 44.351669 455.404022
-23.597523 44.099728 455.592987
-20.943619 43.611046 456.156128
-20.411497 43.618862 456.248596
-19.879202 43.626709 456.341064
-19.346725 43.634579 456.433594
-18.815697 43.378307 456.576904
-16.153658 42.624485 457.192688
-15.619721 42.632347 457.285461
-15.085599 42.640236 457.378265
-14.551289 42.648151 457.471100
-14.018001 42.391331 457.614899
-13.484430 42.134396 457.758789
-12.950577 41.877346 457.902740
-12.415366 41.885216 457.995728
-11.879962 41.893112 458.088776
-11.344365 41.901035 458.181824
-10.808574 41.908985 458.274902
-10.272587 41.916962 458.368011
-9.737238 41.659679 458.512268
-9.200809 41.667656 458.605469
-6.248966 40.649117 459.323608
-5.711034 40.657059 459.417053
-5.172896 40.665020 459.510559
-4.365657 40.411011 459.702209
-1.670250 39.918488 460.273407
-1.130388 39.926483 460.367188
-0.590312 39.934505 460.461029
-0.049985 39.676003 460.606415
0.490573 39.684021 460.700317
3.468645 38.927605 461.372437
4.010790 38.935623 461.466614
4.553619 38.676483 461.612549
5.096265 38.684494 461.706848
7.815219 37.922115 462.334351
8.359399 37.930107 462.428894
8.904679 37.670319 462.575409
11.908075 36.641617 463.304596
12.454296 36.649502 463.399536
13.000759 36.657413 463.494507
13.547466 36.665344 463.589539
16.290989 35.629875 464.274139
16.839392 35.637714 464.369476
17.388048 35.645580 464.464844
18.213266 35.388222 464.660309
20.970682 34.349316 465.348053
21.521528 34.357048 465.443817
22.072638 34.364803 465.539673
22.624008 34.372578 465.635529
23.451563 34.384285 465.779419
26.227201 33.071655 466.523254
26.780853 33.079288 466.619568
27.334778 33.086941 466.715912
27.888977 33.094616 466.812286
30.401232 31.773851 467.511169
31.238424 31.513716 467.709290
32.076427 31.253386 467.907593
32.915241 30.992859 468.106079
33.754868 30.732134 468.304749
34.595322 30.471209 468.503601
35.157246 30.206457 468.653992
35.716022 30.213713 468.751282
36.278706 29.948753 468.901825
37.121651 29.687222 469.101257
37.685337 29.421915 469.252075
38.529716 29.159990 469.451782
39.374943 28.897858 469.651703
40.221024 28.635513 469.851837
40.786926 28.369473 470.003174
41.634472 28.106728 470.203644
42.482883 27.843767 470.404266
-77.782043 55.071461 443.903687
-77.265884 55.078205 443.993530
-76.749634 55.084980 444.083374
-76.233299 55.091782 444.173248
-75.716881 55.098602 444.263153
-75.200371 55.105453 444.353027
-74.683769 55.112328 444.442932
-73.914719 54.864449 444.626648
-73.397858 54.871357 444.716614
-72.880905 54.878288 444.806549
-72.363861 54.885246 444.896515
-71.846718 54.892231 444.986511
-71.329491 54.899242 445.076508
-70.812172 54.906281 445.166504
-70.294754 54.913342 445.256500
-69.524101 54.665432 445.440521
-69.006409 54.672527 445.530579
-68.488617 54.679649 445.620636
-67.970726 54.686798 445.710724
-67.452736 54.693977 445.800812
-66.940102 54.442421 445.939972
-66.421867 54.449615 446.030090
-65.903542 54.456837 446.120239
-65.385117 54.464088 446.210388
-64.612541 54.216064 446.394745
-63.834419 54.226997 446.530060
-63.315536 54.234322 446.620270
-62.796555 54.241673 446.710510
-62.277466 54.249050 446.800751
-61.758270 54.256454 446.891022
-61.243961 54.004681 447.030518
-60.724510 54.012104 447.120819
-60.204952 54.019558 447.211121
-59.685287 54.027039 447.301453
-59.165508 54.034546 447.391785
-56.313938 53.557133 447.987640
-55.793346 53.564751 448.078125
-55.272640 53.572395 448.168610
-54.751820 53.580070 448.259094
-54.230881 53.587769 448.349609
-51.628616 53.366714 448.851898
-50.850178 53.118397 449.037354
-50.328251 53.126236 449.128021
-49.806202 53.134106 449.218689
-49.284027 53.142002 449.309387
-48.761726 53.149929 449.400085
-48.239300 53.157887 449.490814
-45.636456 52.416477 450.093750
-45.113121 52.424488 450.184631
-44.589657 52.432529 450.275513
-44.066059 52.440598 450.366425
-43.542332 52.448696 450.457367
-43.018463 52.456825 450.548309
-40.407043 51.714760 451.152893
-39.882217 51.722942 451.243988
-39.357254 51.731152 451.335114
-38.832146 51.739395 451.426239
-38.047352 51.490501 451.612946
-37.524940 51.237392 451.754120
-36.999241 51.245651 451.845367
-36.473396 51.253941 451.936615
-35.947407 51.262260 452.027924
-35.424191 51.009018 452.169250
-34.897858 51.017353 452.260590
-34.371380 51.025719 452.351959
-33.844746 51.034111 452.443329
-33.057243 50.784943 452.630554
-32.532879 50.531467 452.772156
-32.005627 50.539883 452.863647
-31.478214 50.548321 452.955139
-30.950647 50.556789 453.046692
-30.425446 50.303185 453.188446
-29.897520 50.311668 453.280029
-29.369436 50.320183 453.371643
-28.841194 50.328728 453.463287
-28.050852 50.079258 453.651062
-27.524446 49.825409 453.793091
-26.995546 49.833965 453.884827
-26.466484 49.842556 453.976624
-25.937258 49.851173 454.068420
-25.407864 49.859821 454.160248
-24.615503 49.610138 454.348419
-24.085646 49.618813 454.440308
-23.555618 49.627522 454.532227
-22.762150 49.377728 454.720642
-19.843895 49.162933 455.277527
-19.312387 49.171783 455.369659
-18.780703 49.180660 455.461853
-18.248838 49.189571 455.554077
-15.324128 48.448078 456.213867
-14.790937 48.457039 456.306305
-14.257559 48.466026 456.398743
-13.723993 48.475044 456.491241
-13.191325 48.220146 456.634552
-12.390267 48.233700 456.773407
-9.719319 47.486332 457.389526
-9.184678 47.230934 457.533295
-8.649044 47.239986 457.626160
-8.113211 47.249065 457.719025
-7.576568 47.522797 457.760895
-4.626802 46.248802 458.528015
-4.089256 46.257900 458.621216
-3.551767 46.001820 458.765625
-0.859693 45.250980 459.386139
-0.320479 45.260067 459.479614
0.219016 45.003452 459.624451
1.028776 44.751247 459.816193
3.732459 43.998325 460.439178
4.273781 44.007389 460.533020
4.815328 44.016476 460.626923
5.357625 43.759144 460.772400
5.899102 44.034737 460.814789
8.615818 43.013508 461.491913
9.159401 43.022594 461.586151
9.704136 42.764652 461.732178
12.703234 42.012608 462.407166
13.248805 42.021675 462.501770
13.795916 41.763115 462.648346
14.342025 41.772179 462.743042
17.356562 40.749947 463.472961
17.904491 40.758949 463.567963
18.452675 40.767979 463.663055
19.275425 40.781574 463.805725
22.032482 39.483105 464.543518
22.582857 39.492031 464.639008
23.411127 39.236340 464.834686
23.959949 39.514458 464.877869
27.005657 38.485989 465.614502
27.561272 38.225128 465.763031
30.342215 37.188957 466.454376
30.900093 36.927326 466.603455
31.458364 36.665546 466.752625
32.294956 36.407928 466.950165
33.132359 36.150124 467.147858
33.688908 36.158730 467.244476
34.249046 35.896420 467.394104
34.809589 35.633953 467.543823
35.649429 35.375587 467.742065
36.490097 35.117027 467.940491
37.331593 34.858276 468.139099
38.173923 34.599331 468.337891
39.017094 34.340191 468.536865
39.861107 34.080856 468.736053
40.425568 33.817169 468.886688
41.271027 33.557453 469.086182
42.117344 33.297535 469.285858
42.679234 33.305775 469.383514
-76.878487 60.492455 443.015717
-76.363098 60.499905 443.105316
-75.847626 60.507385 443.194885
-75.332062 60.514889 443.284485
-74.816406 60.522427 443.374115
-74.300667 60.529987 443.463715
-73.784836 60.537579 443.553345
-73.268913 60.545197 443.643005
-72.758614 60.295273 443.781403
-72.242470 60.302917 443.871094
-71.726234 60.310585 443.960785
-71.209900 60.318287 444.050476
-70.693474 60.326015 444.140167
-70.176956 60.333771 444.229889
-69.407448 60.087643 444.413361
-68.890648 60.095436 444.503113
-68.373749 60.103260 444.592896
-67.856758 60.111115 444.682678
-67.339668 60.118996 444.772491
-66.822479 60.126907 444.862305
-66.051689 59.880760 445.045990
-65.534210 59.888710 445.135834
-65.016624 59.896690 445.225708
-64.498940 59.904701 445.315582
-63.981152 59.912743 445.405457
-61.395466 59.694969 445.904175
-60.881790 59.444668 446.043274
-60.363178 59.452850 446.133270
-59.844463 59.461060 446.223297
-59.325634 59.469299 446.313324
-58.806698 59.477570 446.403381
-56.214752 59.260540 446.903076
-55.439587 59.014248 447.087555
-54.919720 59.022675 447.177734
-54.399731 59.031132 447.267944
-53.879627 59.039623 447.358154
-53.359409 59.048145 447.448364
-50.503990 58.576897 448.043732
-49.982899 58.585545 448.134064
-49.461681 58.594227 448.224457
-48.940338 58.602940 448.314819
-48.418873 58.611683 448.405243
-47.640186 58.365261 448.590363
-44.775597 57.894241 449.187286
-44.252964 57.903122 449.277863
-43.730202 57.912037 449.368469
-43.207302 57.920982 449.459076
-42.687645 57.669884 449.599396
-42.167770 57.418701 449.739716
-41.647682 57.167439 449.880127
-41.124111 57.176392 449.970856
-40.600403 57.185379 450.061615
-40.076553 57.194397 450.152405
-39.555702 56.943024 450.292938
-39.031528 56.952065 450.383789
-38.507214 56.961140 450.474609
-37.982758 56.970245 450.565491
-35.361088 56.755470 451.069977
-34.575710 56.508484 451.256409
-34.050068 56.517746 451.347443
-33.524269 56.527042 451.438507
-32.998322 56.536373 451.529602
-30.105236 56.326984 452.080994
-29.578236 56.336487 452.172211
-29.051075 56.346016 452.263458
-28.262280 56.098904 452.450531
-27.734676 56.108475 452.541870
-27.206909 56.118076 452.633209
-26.681101 55.866074 452.774750
-26.152966 55.875698 452.866180
-25.624664 55.885357 452.957611
-25.096197 55.895046 453.049072
-24.567562 55.904770 453.140533
-24.038759 55.914528 453.232056
-23.509789 55.924316 453.323578
-22.980648 55.934139 453.415131
-22.451338 55.943996 453.506683
-21.921852 55.953884 453.598297
-19.274870 55.479176 454.157501
-18.745731 55.226742 454.299713
-18.214888 55.236729 454.391541
-17.683863 55.246746 454.483398
-17.152658 55.256798 454.575256
-16.621271 55.266880 454.667145
-15.823850 55.282070 454.805054
-13.166891 54.281174 455.467682
-12.633934 54.291317 455.559845
-12.100787 54.301491 455.652039
-11.568353 54.048447 455.794952
-8.632608 53.577763 456.404388
-8.097866 53.588039 456.496826
-7.562926 53.598351 456.589325
-6.760649 53.350067 456.778961
-6.225162 53.360409 456.871552
-3.545634 52.355785 457.538879
-3.008733 52.366123 457.631714
-2.203122 52.117256 457.822083
-1.665650 52.127625 457.914978
1.294751 51.390686 458.580200
2.103573 51.141327 458.771240
2.642954 51.151745 458.864471
5.345736 49.877110 459.588104
5.886690 49.887451 459.681641
8.598858 48.609806 460.407501
9.141427 48.620060 460.501343
9.684231 48.630344 460.595215
10.227270 48.640659 460.689117
10.771532 48.384701 460.834717
11.314057 48.661385 460.877045
11.863234 47.339306 461.229523
12.680831 47.087852 461.422485
13.225470 47.098000 461.516724
13.770353 47.108177 461.610992
14.315479 47.118385 461.705292
14.862206 46.861649 461.851440
17.872959 45.848610 462.578918
18.420195 45.858753 462.673584
18.967682 45.868927 462.768311
19.789389 45.884239 462.910461
22.815624 44.868599 463.641174
23.642525 44.615578 463.836090
26.681747 43.596870 464.569702
27.233625 43.606937 464.665222
27.785774 43.617031 464.760773
28.614510 43.632225 464.904205
30.841789 42.326134 465.549927
31.398914 42.066517 465.698486
31.956429 41.806763 465.847137
32.791901 41.551785 466.043945
33.628170 41.296638 466.240936
34.465244 41.041313 466.438110
35.303131 40.785812 466.635468
36.141830 40.530132 466.832977
36.981350 40.274277 467.030670
37.542667 40.013386 467.180237
38.383591 39.757175 467.378235
39.225346 39.500786 467.576447
40.067940 39.244209 467.774841
40.911369 38.987446 467.973389
41.475445 38.725716 468.123596
42.320320 38.468590 468.322479
42.885410 38.206532 468.472931
43.446766 38.216022 468.570221
-76.496559 65.892342 442.039734
-75.724693 65.904556 442.173676
-75.210007 65.912743 442.263000
-74.695236 65.920952 442.352325
-74.180367 65.929192 442.441650
-73.665413 65.937469 442.531006
-73.150360 65.945770 442.620361
-72.635223 65.954109 442.709717
-72.125458 65.705566 442.847778
-71.610092 65.713928 442.937164
-71.094635 65.722321 443.026581
-70.579079 65.730743 443.115997
-70.063431 65.739197 443.205444
-69.295029 65.494820 443.388367
-68.779099 65.503319 443.477844
-68.263077 65.511848 443.567322
-67.746948 65.520409 443.656799
-67.230728 65.529007 443.746307
-66.714401 65.537636 443.835846
-66.197983 65.546288 443.925354
-65.428116 65.301926 444.108551
-64.911400 65.310631 444.198120
-64.394585 65.319359 444.287720
-63.877659 65.328133 444.377289
-63.360638 65.336929 444.466919
-60.519691 65.128136 445.008972
-60.006477 64.879265 445.147705
-59.488571 64.888237 445.237427
-58.970554 64.897247 445.327179
-58.452427 64.906281 445.416931
-57.934189 64.915359 445.506714
-55.086018 64.707634 446.049835
-52.249771 63.466335 446.790588
-49.901764 64.025719 447.097168
-49.124924 63.781174 447.281616
-48.604343 63.790668 447.371735
-48.083637 63.800198 447.461853
-47.562805 63.809757 447.551971
-44.963535 63.339809 448.101837
-44.184307 63.095112 448.286713
-43.662373 63.104816 448.377014
-43.140301 63.114555 448.467346
-42.618095 63.124332 448.557678
-42.098965 62.874699 448.697601
-41.576443 62.884502 448.787964
-41.053787 62.894341 448.878387
-40.530991 62.904217 448.968811
-40.008057 62.914124 449.059235
-39.484982 62.924068 449.149689
-38.964733 62.674332 449.289825
-38.441334 62.684303 449.380341
-37.917789 62.694313 449.470856
-37.394104 62.704357 449.561401
-36.611092 62.459557 449.747009
-36.087002 62.469646 449.837616
-35.562759 62.479774 449.928223
-35.038376 62.489937 450.018860
-34.513840 62.500134 450.109528
-33.989151 62.510368 450.200226
-33.464317 62.520638 450.290924
-32.939327 62.530941 450.381653
-32.414188 62.541283 450.472382
-31.888893 62.551659 450.563171
-31.363443 62.562069 450.653931
-28.736034 62.354069 451.158142
-28.209600 62.364658 451.249084
-27.683002 62.375278 451.340027
-27.158308 62.125168 451.481018
-26.631346 62.135818 451.572021
-26.104219 62.146507 451.663055
-25.576929 62.157230 451.754089
-23.203814 61.944805 452.214233
-22.413067 61.699902 452.401215
-21.884514 61.710793 452.492462
-21.355787 61.721718 452.583710
-20.826889 61.732681 452.675018
-18.182501 61.264740 453.232452
-17.652458 61.275833 453.323914
-17.123528 61.025162 453.465759
-16.593081 61.036282 453.557281
-16.062450 61.047436 453.648834
-15.531639 61.058628 453.740417
-15.000642 61.069859 453.832031
-14.468377 61.343159 453.873199
-11.547172 60.356644 454.579742
-11.014635 60.368004 454.671600
-10.216221 60.122559 454.860016
-9.683158 60.133965 454.951965
-6.749227 59.408508 455.610291
-6.214746 59.420002 455.702454
-5.413021 59.174171 455.891541
-2.468219 58.447605 456.552002
-1.931919 58.459190 456.644501
-1.395408 58.470814 456.737000
1.291165 57.209484 457.455170
1.829181 57.221066 457.547974
2.367416 57.232681 457.640778
2.905870 57.244331 457.733612
3.444885 56.991703 457.877625
3.983825 57.003372 457.970551
6.684318 56.003353 458.640686
7.224788 56.015022 458.733887
7.765487 56.026730 458.827118
8.576967 56.044353 458.967041
11.290671 54.776886 459.691193
11.834396 54.523052 459.836273
12.377359 54.534725 459.929901
12.919424 54.812073 459.972046
14.012628 53.506577 460.417389
14.558027 53.252167 460.562866
15.102430 53.263733 460.656769
15.647079 53.275330 460.750702
16.193401 53.020760 460.896393
16.738590 53.032368 460.990417
19.476868 51.757587 461.720337
20.023802 51.769112 461.814697
21.675741 50.468391 462.357788
22.500143 50.218140 462.551758
23.048786 50.229488 462.646454
23.597689 50.240871 462.741180
24.423712 49.990452 462.935455
24.973324 50.001854 463.030304
27.737783 48.719166 463.766388
28.567654 48.467861 463.961517
29.116970 48.747452 464.004486
30.788116 47.438755 464.552521
31.620934 47.186699 464.748291
32.177551 46.928932 464.896393
32.731590 46.940041 464.992096
33.288929 46.682102 465.140381
33.846661 46.424030 465.288727
34.682407 46.171337 465.485168
35.518959 45.918472 465.681763
36.356316 45.665447 465.878540
37.194489 45.412251 466.075500
38.033478 45.158882 466.272614
38.594440 44.899879 466.421722
39.434830 44.646179 466.619171
40.276047 44.392307 466.816803
41.118099 44.138260 467.014587
41.681221 43.878620 467.164215
42.524704 43.624229 467.362335
43.088833 43.364277 467.512207
43.933758 43.109539 467.710632
-75.349258 71.291954 441.198944
-74.835373 71.300835 441.287994
-74.321404 71.309753 441.377045
-73.807343 71.318703 441.466095
-73.293190 71.327682 441.555145
-72.778946 71.336693 441.644226
-72.264610 71.345741 441.733307
-71.750175 71.354820 441.822418
-71.240860 71.107628 441.960144
-70.726204 71.116737 442.049255
-70.211449 71.125885 442.138397
-69.696594 71.135056 442.227539
-69.181648 71.144272 442.316711
-68.666603 71.153519 442.405884
-68.156441 70.906258 442.543762
-67.641159 70.915535 442.632965
-67.125778 70.924850 442.722198
-66.610306 70.934196 442.811432
-66.094719 70.943573 442.900665
-65.579041 70.952988 442.989899
-65.063255 70.962440 443.079163
-64.552086 70.715111 443.217255
-64.036057 70.724594 443.306549
-63.519920 70.734108 443.395844
-63.003685 70.743660 443.485168
-62.487343 70.753250 443.574524
-61.975418 70.505859 443.712738
-61.458820 70.515480 443.802094
-60.942120 70.525131 443.891479
-60.425308 70.534828 443.980896
-59.908390 70.544556 444.070282
-59.137119 70.301971 444.253387
-58.619884 70.311745 444.342834
-58.102543 70.321564 444.432312
-57.585083 70.331413 444.521790
-56.808685 70.346260 444.656036
-54.485886 69.876038 445.157104
-53.712254 69.633377 445.340637
-53.193691 69.643425 445.430267
-52.675014 69.653511 445.519928
-52.156212 69.663628 445.609589
-51.637295 69.673782 445.699280
-51.121986 69.426041 445.838135
-50.602783 69.436234 445.927856
-50.083454 69.446457 446.017609
-49.564003 69.456726 446.107361
-48.788158 69.214050 446.291260
-48.268356 69.224365 446.381073
-47.748425 69.234726 446.470886
-47.228363 69.245117 446.560730
-46.708176 69.255547 446.650574
-45.927650 69.271263 446.785400
-43.330090 68.807060 447.333832
-42.808830 68.817696 447.423828
-42.287434 68.828369 447.513855
-41.765903 68.839073 447.603882
-40.986347 68.596390 447.788452
-40.464436 68.607147 447.878540
-39.942379 68.617950 447.968658
-39.420181 68.628784 448.058777
-38.897846 68.639664 448.148926
-38.375366 68.650581 448.239105
-37.852745 68.661530 448.329285
-37.332710 68.413383 448.469055
-36.809757 68.424377 448.559296
-36.286663 68.435402 448.649536
-35.763420 68.446465 448.739807
-35.242607 68.198235 448.879761
-34.716492 68.468712 448.920410
-34.195301 68.220474 449.060425
-33.671425 68.231651 449.150787
-33.147396 68.242874 449.241150
-32.623215 68.254128 449.331543
-32.098881 68.265427 449.421967
-31.574394 68.276756 449.512421
-31.049753 68.288132 449.602875
-30.524956 68.299545 449.693329
-29.739634 68.056923 449.878906
-29.214401 68.068390 449.969452
-28.691107 67.819969 450.109894
-28.165518 67.831467 450.200470
-27.639769 67.843010 450.291107
-27.113857 67.854591 450.381744
-26.587784 67.866211 450.472412
-26.061546 67.877876 450.563080
-25.535145 67.889572 450.653778
-25.008577 67.901314 450.744507
-24.220177 67.658661 450.930634
-23.693151 67.670448 451.021423
-22.903961 67.427734 451.207703
-22.376474 67.439583 451.298584
-21.848816 67.451469 451.389465
-21.320984 67.463402 451.480377
-20.792980 67.475372 451.571320
-20.264803 67.487373 451.662262
-19.736448 67.499428 451.753235
-18.944958 67.256721 451.939941
-18.417454 67.007889 452.081177
-17.888399 67.019981 452.172272
-17.359167 67.032120 452.263397
-16.830967 66.783195 452.404755
-16.037603 66.540253 452.591827
-15.507654 66.552437 452.683075
-14.977521 66.564659 452.774323
-14.447204 66.576920 452.865601
-13.651379 66.595390 453.002594
-10.731988 65.878647 453.656677
-10.200034 65.891090 453.748199
-9.667887 65.903564 453.839783
-6.739378 64.924011 454.546234
-6.205781 64.936554 454.638062
-5.671982 64.949142 454.729889
-5.137981 64.961761 454.821747
-4.604067 64.711922 454.964325
-4.069616 64.724571 455.056274
-1.394384 63.999798 455.668793
-0.858558 64.012535 455.760956
-0.054360 63.768646 455.950104
0.482040 63.781433 456.042358
3.437447 62.798489 456.754242
3.975431 62.811325 456.846771
4.514057 62.560513 456.990356
5.052528 62.573372 457.082977
7.750300 61.846043 457.699951
8.561071 61.601234 457.890442
9.372492 61.356316 458.081055
12.353691 60.369061 458.798340
12.895905 60.381996 458.891602
15.617235 59.121120 459.615845
16.161125 59.134007 459.709381
16.705263 59.146927 459.802979
17.249647 59.159885 459.896637
17.795795 58.907322 460.041901
20.256853 57.902378 460.670715
21.078119 57.655678 460.863434
21.624798 57.668591 460.957458
22.171734 57.681541 461.051544
23.276342 56.375381 461.499023
24.100431 56.127907 461.692383
24.648817 56.140671 461.786774
25.197470 56.153465 461.881195
25.748600 55.899448 462.027618
26.297831 55.912258 462.122131
29.060555 54.640213 462.855835
29.889881 54.391777 463.050323
30.438789 54.672085 463.093079
31.004049 53.346226 463.449127
31.835377 53.097099 463.644073
32.667484 52.847828 463.839203
33.223625 52.592167 463.986816
33.780155 52.336376 464.134521
34.337070 52.080452 464.282318
34.894371 51.824398 464.430237
35.452061 51.568211 464.578217
36.010143 51.311893 464.726318
36.568619 51.055439 464.874512
37.127487 50.798851 465.022766
37.686749 50.542126 465.171143
38.524673 50.291370 465.367584
39.084908 50.034359 465.516205
39.645542 49.777210 465.664886
40.485432 49.525990 465.861755
41.326153 49.274601 466.058807
41.888351 49.017002 466.207886
42.730488 48.765289 466.405243
43.573467 48.513412 466.602783
44.133266 48.525478 466.699310
-74.973549 76.922012 440.177368
-74.209175 76.681015 440.358948
-73.695938 76.690659 440.447723
-73.182610 76.700340 440.536499
-72.669189 76.710060 440.625305
-72.155678 76.719810 440.714111
-71.642075 76.729591 440.802917
-71.128372 76.739410 440.891754
-70.619553 76.493553 441.029114
-70.105621 76.503410 441.117981
-69.591591 76.513298 441.206848
-69.077461 76.523224 441.295715
-68.563240 76.533188 441.384613
-68.048912 76.543190 441.473511
-67.539253 76.297272 441.611023
-67.024689 76.307312 441.699951
-66.510025 76.317383 441.788910
-65.995262 76.327492 441.877869
-65.480400 76.337639 441.966827
-64.965431 76.347824 442.055817
-64.197304 76.106956 442.238007
-63.682041 76.117195 442.327026
-63.166672 76.127472 442.416046
-62.651196 76.137787 442.505096
-62.135612 76.148132 442.594147
-59.560265 75.943893 443.088440
-59.043991 75.954430 443.177582
-58.531719 75.708351 443.315613
-58.015186 75.718925 443.404785
-57.498539 75.729546 443.493958
-56.981777 75.740204 443.583160
-56.468872 75.494064 443.721313
-55.951843 75.504753 443.810547
-55.438602 75.258553 443.948761
-54.921303 75.269287 444.038055
-54.403889 75.280060 444.127350
-53.886356 75.290871 444.216644
-53.368702 75.301727 444.305969
-52.854649 75.055466 444.444366
-52.336720 75.066353 444.533722
-51.818668 75.077286 444.623108
-51.300499 75.088249 444.712494
-48.714634 74.628685 445.257965
-48.195637 74.639816 445.347473
-47.676514 74.650986 445.436981
-47.157265 74.662193 445.526520
-46.637886 74.673439 445.616089
-46.118374 74.684731 445.705658
-45.342056 74.443939 445.889282
-44.562195 74.460976 446.023712
-44.042118 74.472389 446.113342
-43.521912 74.483833 446.203003
-43.001568 74.495323 446.292694
-42.481087 74.506859 446.382385
-41.703045 74.266121 446.566284
-41.182186 74.277710 446.656036
-40.661190 74.289345 446.745819
-40.140053 74.301018 446.835571
-39.358086 74.318604 446.970276
-38.836594 74.330383 447.060120
-38.314964 74.342201 447.149933
-37.793190 74.354057 447.239807
-37.271271 74.365952 447.329681
-36.490681 74.125336 447.514038
-35.968361 74.137299 447.603973
-35.445892 74.149300 447.693909
-34.923279 74.161346 447.783875
-32.048450 73.969406 448.328674
-31.524813 73.981682 448.418793
-30.741219 73.741104 448.603668
-30.217155 73.753433 448.693817
-29.692936 73.765816 448.783997
-29.168556 73.778236 448.874207
-28.644020 73.790695 448.964447
-26.283447 73.587837 449.420532
-25.496967 73.347275 449.605896
-24.971218 73.359947 449.696320
-24.445301 73.372658 449.786743
-23.919218 73.385422 449.877167
-23.129780 73.404633 450.012878
-20.499802 72.689247 450.615570
-19.972321 72.702187 450.706238
-19.444664 72.715172 450.796906
-18.916830 72.728203 450.887604
-18.388821 72.741280 450.978333
-17.859402 73.014702 451.019012
-14.955443 72.045425 451.719147
-14.425958 72.058685 451.810089
-13.896287 72.071983 451.901062
-11.247389 71.355988 452.507233
-10.716468 71.369400 452.598389
-10.185354 71.382858 452.689606
-9.654047 71.396362 452.780823
-9.123149 71.148605 452.922455
-6.463722 70.431908 453.530609
-5.930875 70.445518 453.622070
-5.397826 70.459167 453.713593
-4.864867 70.211044 453.855652
-4.331372 70.224731 453.947235
-1.393602 69.251884 454.654022
-0.858599 69.265648 454.745850
-0.323384 69.279457 454.837708
0.212044 69.293304 454.929596
3.161978 68.319092 455.638824
3.698974 68.333015 455.730957
4.505295 68.090973 455.920135
5.042886 68.104950 456.012360
8.006380 67.128876 456.724335
8.545604 67.142906 456.816864
9.085059 67.156990 456.909424
9.625556 66.907440 457.053101
12.602417 65.929367 457.767822
13.143842 65.943489 457.860687
13.957583 65.700478 458.051361
16.947548 64.720276 458.768829
17.491133 64.734451 458.862091
18.036451 64.483803 459.006805
18.854288 64.240135 459.198334
21.584879 63.515560 459.820587
22.132654 63.264336 459.965881
22.678904 63.278549 460.059601
23.225410 63.292809 460.153351
25.972614 62.034821 460.881592
26.797403 61.789970 461.074585
27.346157 61.804176 461.168732
30.106525 60.542599 461.900024
30.935135 60.296982 462.093811
31.486202 60.311119 462.188416
33.155029 59.017799 462.733032
33.986633 58.771393 462.927521
34.542446 58.517876 463.074677
35.098640 58.264236 463.221893
35.655220 58.010471 463.369232
36.489262 57.763515 463.564240
37.046780 57.509487 463.711792
37.604691 57.255329 463.859436
38.162991 57.001049 464.007172
38.721687 56.746635 464.154999
