# This PCD file was generated using the MATLAB® pcwrite function
# from Computer Vision Toolbox®.
# .PCD v.7 - Point Cloud Data file format
VERSION .7
FIELDS x y z
SIZE 4 4 4
TYPE F F F
COUNT 1 1 1
WIDTH 1534
HEIGHT 1
VIEWPOINT 0 0 0 1 0 0 0
POINTS 1534
DATA ascii
28.577993 14.258661 568.072632
28.571615 14.921373 567.940674
28.565254 15.583799 567.808777
28.558914 16.245939 567.676941
28.888571 16.909685 567.603394
28.882191 17.571335 567.471680
28.875832 18.232700 567.339966
29.205326 18.895906 567.266479
29.198931 19.556789 567.134888
29.192554 20.217394 567.003357
29.186195 20.877724 566.871887
29.515478 21.540199 566.798523
29.509085 22.200056 566.667175
29.502710 22.859638 566.535828
29.496355 23.518951 566.404541
29.822233 24.510180 566.265686
29.815853 25.168894 566.134521
29.809492 25.827345 566.003418
29.803148 26.485529 565.872375
29.796825 27.143450 565.741394
30.125622 27.804251 565.668274
30.119267 28.461721 565.537354
30.112928 29.118935 565.406494
30.106611 29.775888 565.275696
30.435211 30.436031 565.202637
30.428862 31.092546 565.071960
30.422529 31.748808 564.941284
30.416220 32.404816 564.810669
30.409925 33.060574 564.680115
30.738285 33.719898 564.607178
30.731962 34.375233 564.476746
30.725658 35.030312 564.346313
30.719374 35.685150 564.215942
30.713108 36.339737 564.085632
31.337797 40.924393 563.289429
31.331551 41.577209 563.159424
31.325323 42.229794 563.029541
31.319117 42.882149 562.899658
31.312927 43.534267 562.769836
31.640556 44.191181 562.697266
31.634340 44.842915 562.567505
31.628143 45.494419 562.437805
31.621965 46.145699 562.308167
31.615807 46.796749 562.178589
31.609669 47.447578 562.049011
31.937037 48.103657 561.976563
31.930870 48.754112 561.847046
31.924725 49.404346 561.717651
32.215237 53.956051 560.869690
32.209179 54.604633 560.740601
32.536098 55.259300 560.668335
32.530018 55.907539 560.539307
32.523956 56.555569 560.410278
32.517914 57.203392 560.281372
32.511890 57.851009 560.152466
32.505890 58.498421 560.023621
32.832569 59.152370 559.951477
32.826546 59.799446 559.822632
32.820538 60.446327 559.693909
32.814548 61.093002 559.565186
32.808578 61.739483 559.436523
33.099407 66.266907 558.593445
33.093529 66.911903 558.465088
33.416771 67.886787 558.328979
33.410881 68.531387 558.200684
33.405010 69.175804 558.072449
33.399158 69.820030 557.944214
33.393326 70.464081 557.816040
33.387508 71.107941 557.687927
33.381714 71.751617 557.559875
33.707638 72.403374 557.487976
33.701820 73.046761 557.359985
33.696022 73.689972 557.231995
33.690243 74.333008 557.104004
33.684483 74.975861 556.976074
33.678741 75.618546 556.848206
33.673016 76.261047 556.720398
33.667313 76.903381 556.592590
33.992958 77.554375 556.520813
33.987232 78.196434 556.393066
33.981525 78.838318 556.265381
34.307087 79.489098 556.193665
34.301365 80.130722 556.065979
34.295658 80.772171 555.938354
34.289970 81.413452 555.810730
34.615414 82.063934 555.739075
34.609707 82.704956 555.611511
34.604019 83.345818 555.484009
34.929379 83.996101 555.412354
34.923676 84.636703 555.284912
34.917988 85.277145 555.157471
35.240417 86.247360 555.022156
35.234726 86.887482 554.894775
35.229050 87.527435 554.767456
35.223392 88.167236 554.640137
35.548546 88.817024 554.568542
35.542873 89.456581 554.441345
35.537216 90.095985 554.314087
35.531582 90.735237 554.186890
35.525963 91.374336 554.059753
35.520359 92.013283 553.932678
35.845341 92.662659 553.861084
35.839722 93.301369 553.734009
35.834126 93.939934 553.606995
36.159035 94.589165 553.535461
36.153419 95.227501 553.408447
36.147823 95.865700 553.281494
36.142246 96.503738 553.154541
36.136684 97.141640 553.027649
36.131142 97.779396 552.900757
36.455887 98.428261 552.829285
36.450329 99.065804 552.702454
36.444786 99.703201 552.575684
36.439262 100.340454 552.448914
36.433758 100.977570 552.322144
36.758373 101.626167 552.250732
36.752853 102.263069 552.124023
37.077438 102.911613 552.052551
37.071903 103.548317 551.925903
37.066387 104.184883 551.799255
37.060886 104.821312 551.672668
37.385380 105.469673 551.601257
37.379864 106.105904 551.474670
37.704330 106.754219 551.403259
37.698803 107.390251 551.276733
37.693291 108.026154 551.150208
37.687798 108.661919 551.023743
37.682323 109.297554 550.897278
38.006668 109.945648 550.825928
38.001179 110.581100 550.699524
38.325497 111.229156 550.628113
38.319996 111.864418 550.501709
38.314510 112.499550 550.375366
38.309040 113.134560 550.249084
38.633274 113.782471 550.177673
38.627792 114.417297 550.051392
16.749775 -23.598394 573.484192
16.745487 -22.919926 573.349548
17.079094 -22.244301 573.274292
17.074741 -21.566486 573.139709
17.408186 -20.891369 573.064575
17.403770 -20.214205 572.930115
17.399364 -19.537403 572.795776
17.732573 -18.863070 572.720703
18.065697 -18.188946 572.645691
18.061153 -17.513065 572.511475
18.056623 -16.837542 572.377319
18.052105 -16.162371 572.243225
18.384924 -15.489291 572.168396
18.378057 -14.477606 571.967468
19.363785 -10.778421 571.409058
19.359039 -10.106064 571.275452
19.354305 -9.434045 571.141968
19.686380 -8.763366 571.067444
19.681589 -8.091945 570.934082
19.676813 -7.420859 570.800781
20.659769 -3.737135 570.244873
20.654835 -3.067963 570.111938
20.649912 -2.399115 569.979004
20.645000 -1.730590 569.846191
20.976271 -1.062535 569.772034
21.613276 3.607297 568.961182
21.608252 4.273209 568.828857
21.938929 4.939332 568.755005
21.933853 5.604703 568.622742
21.928795 6.269770 568.490540
22.259279 6.935274 568.416809
22.254171 7.599808 568.284729
22.249079 8.264041 568.152710
22.243998 8.927975 568.020752
22.574234 9.592647 567.947083
22.569107 10.256059 567.815247
22.563993 10.919176 567.683411
22.558895 11.581998 567.551697
22.888887 12.245862 567.478149
22.883741 12.908174 567.346497
23.213614 13.571679 567.273010
23.208424 14.233485 567.141479
23.203247 14.895005 567.009949
23.198088 15.556239 566.878540
23.527723 16.218967 566.805176
23.522518 16.879705 566.673828
23.517328 17.540165 566.542480
23.512154 18.200340 566.411255
23.506992 18.860237 566.280090
23.836338 19.522007 566.206848
23.831135 20.181423 566.075806
23.825947 20.840565 565.944763
23.820774 21.499432 565.813782
23.815617 22.158028 565.682861
24.144678 22.818871 565.609741
24.139481 23.476997 565.478943
24.134295 24.134855 565.348145
24.129126 24.792448 565.217407
24.118834 26.106834 564.956116
24.457970 25.452587 565.144409
24.447565 26.766594 564.883179
24.442387 27.423203 564.752686
24.437222 28.079552 564.622192
24.432074 28.735640 564.491760
24.760592 29.394728 564.418945
24.755405 30.050373 564.288574
24.750233 30.705767 564.158325
24.745075 31.360905 564.028076
25.375568 35.947838 563.232422
25.370398 36.601135 563.102539
25.365244 37.254189 562.972717
25.360106 37.907001 562.842957
25.687910 38.563858 562.770447
25.682735 39.216263 562.640747
25.677578 39.868431 562.511108
25.672434 40.520363 562.381470
25.667307 41.172058 562.251953
25.662193 41.823521 562.122437
25.989708 42.479477 562.050049
25.984562 43.130547 561.920593
25.979431 43.781387 561.791199
25.974316 44.431995 561.661865
26.270987 48.985416 560.814697
26.597990 49.639839 560.742493
26.592888 50.288586 560.613525
26.587801 50.937119 560.484619
26.914679 51.591183 560.412476
26.909559 52.239357 560.283630
26.904457 52.887314 560.154785
26.899372 53.535061 560.026001
26.894300 54.182594 559.897339
26.889246 54.829922 559.768616
26.884207 55.477039 559.640015
26.879183 56.123947 559.511414
26.874174 56.770649 559.382874
27.501848 61.305546 558.597046
27.496843 61.950779 558.468750
27.491856 62.595818 558.340576
27.486883 63.240658 558.212402
27.812956 63.892437 558.140564
27.807955 64.536964 558.012451
27.802971 65.181297 557.884338
27.798000 65.825439 557.756348
27.793047 66.469391 557.628357
27.788109 67.113159 557.500366
27.783188 67.756737 557.372498
27.778280 68.400124 557.244629
27.773388 69.043327 557.116760
28.069820 73.548859 556.278992
28.395262 74.198959 556.207336
28.390396 74.840683 556.079834
28.715778 75.490662 556.008240
29.339352 80.315262 555.164490
29.334469 80.955574 555.037231
29.659550 81.604851 554.965698
29.654642 82.244896 554.838501
29.649750 82.884781 554.711304
29.974743 83.533859 554.639832
29.969828 84.173485 554.512695
29.964930 84.812958 554.385620
29.960047 85.452263 554.258545
29.955179 86.091415 554.131531
30.280010 86.740120 554.060059
30.275122 87.379028 553.933105
30.270247 88.017769 553.806152
30.265388 88.656364 553.679199
30.890377 93.143082 552.902405
30.885538 93.780602 552.775696
31.210018 94.428558 552.704346
31.205158 95.065849 552.577698
31.200315 95.702995 552.451050
31.195488 96.339996 552.324463
31.190676 96.976852 552.197937
31.185877 97.613571 552.071350
31.181093 98.250137 551.944885
31.176327 98.886566 551.818420
31.171572 99.522858 551.691956
31.166834 100.159004 551.565552
31.157400 101.430878 551.312805
31.490997 100.806305 551.494263
31.481497 102.078041 551.241516
31.476768 102.713699 551.115234
31.472054 103.349228 550.988953
31.467356 103.984619 550.862671
31.791348 104.631592 550.791443
31.786631 105.266785 550.665222
31.781925 105.901840 550.539001
31.777237 106.536766 550.412842
31.770231 107.488899 550.223694
32.729904 111.014877 549.694885
32.725193 111.648972 549.568848
32.720493 112.282936 549.442871
33.044189 112.929443 549.371704
33.039471 113.563225 549.245728
33.034767 114.196884 549.119812
33.358402 114.843307 549.048645
33.353683 115.476791 548.922729
11.679113 -21.528587 572.191589
11.676163 -20.852327 572.057556
12.009712 -20.178617 571.982727
12.006690 -19.503002 571.848816
12.003675 -18.827747 571.714966
12.336976 -18.154821 571.640198
12.333891 -17.480204 571.506531
12.667026 -16.807772 571.431824
12.663871 -16.133785 571.298218
12.996841 -15.461839 571.223633
12.993617 -14.788480 571.090149
12.990402 -14.115469 570.956726
13.323133 -13.444276 570.882202
13.319850 -12.771883 570.748901
13.652421 -12.101162 570.674438
13.649071 -11.429381 570.541260
13.981484 -10.759126 570.466858
13.978069 -10.087952 570.333801
13.974663 -9.417115 570.200745
14.306845 -8.747583 570.126465
14.303374 -8.077343 569.993530
14.299912 -7.407437 569.860718
14.296460 -6.737863 569.727905
14.626584 -5.734764 569.587463
14.958352 -5.066513 569.513367
14.954769 -4.397943 569.380737
14.951195 -3.729698 569.248169
14.947631 -3.061778 569.115723
15.279109 -2.394463 569.041748
15.275484 -1.727113 568.909363
15.271868 -1.060083 568.777039
15.268262 -0.393371 568.644836
15.599454 0.273030 568.570984
15.595788 0.939182 568.438843
15.926838 1.605171 568.365051
15.923113 2.270769 568.233032
15.919398 2.936056 568.101013
15.915694 3.601033 567.969116
16.246466 4.266141 567.895447
16.242704 4.930575 567.763611
16.238953 5.594704 567.631897
16.235210 6.258528 567.500183
16.565710 6.922778 567.426636
16.561913 7.586071 567.295044
16.892279 8.249937 567.221558
16.888426 8.912702 567.090088
16.884583 9.575171 566.958618
16.880749 10.237344 566.827209
16.876926 10.899222 566.695862
17.206964 11.562042 566.622559
17.203089 12.223407 566.491333
17.199224 12.884482 566.360168
17.195370 13.545268 566.229004
17.835127 18.166704 565.428162
17.831211 18.825371 565.297485
18.160496 19.485861 565.224487
18.156530 20.144047 565.093872
18.152576 20.801958 564.963257
18.481680 21.461914 564.890381
18.477674 22.119354 564.759888
18.473682 22.776524 564.629456
18.469702 23.433422 564.499084
18.465731 24.090055 564.368713
18.461773 24.746422 564.238464
18.457827 25.402525 564.108276
18.786512 26.061182 564.035522
18.782518 26.716829 563.905396
19.087017 31.302519 563.053162
19.083044 31.956186 562.923462
19.079084 32.609604 562.793762
19.407148 33.266376 562.721252
19.735163 33.923054 562.648804
19.731100 34.575867 562.519226
19.727053 35.228436 562.389709
19.723015 35.880760 562.260193
19.718988 36.532845 562.130798
19.714973 37.184685 562.001404
19.710972 37.836285 561.872070
19.706982 38.487644 561.742798
20.034561 39.143021 561.670471
20.030529 39.793976 561.541260
20.358011 40.449097 561.469055
20.353935 41.099655 561.339905
20.349874 41.749977 561.210815
20.345823 42.400070 561.081787
20.341784 43.049934 560.952759
20.337757 43.699566 560.823792
20.333742 44.348972 560.694885
20.329739 44.998150 560.566040
20.325748 45.647102 560.437256
20.959454 50.194481 559.649963
20.955433 50.841808 559.521484
20.951424 51.488926 559.393005
20.947426 52.135830 559.264587
21.273960 52.788269 559.192749
21.269926 53.434818 559.064392
21.265903 54.081158 558.936096
21.261892 54.727287 558.807800
21.257895 55.373207 558.679626
21.253906 56.018921 558.551453
21.249933 56.664433 558.423340
21.245970 57.309738 558.295227
21.242020 57.954838 558.167175
21.238081 58.599739 558.039185
21.886152 60.546429 557.767822
21.882143 61.190666 557.639954
21.878145 61.834713 557.512146
21.874161 62.478561 557.384338
21.870188 63.122215 557.256531
21.866228 63.765678 557.128845
21.862280 64.408951 557.001160
22.493584 68.921570 556.220337
22.489616 69.563477 556.092896
22.485661 70.205208 555.965515
22.481718 70.846748 555.838196
22.806980 71.495918 555.766724
22.803007 72.137169 555.639465
23.128201 72.786201 555.567993
23.124195 73.427162 555.440796
23.120203 74.067955 555.313599
23.445288 74.716743 555.242188
23.441263 75.357246 555.114990
23.437254 75.997589 554.987915
23.762230 76.646133 554.916504
23.758188 77.286201 554.789490
23.754162 77.926086 554.662415
24.079035 78.574417 554.591064
24.074978 79.214035 554.464111
24.070932 79.853493 554.337158
24.395702 80.501602 554.265808
24.391630 81.140793 554.138916
24.387569 81.779816 554.012085
24.383520 82.418678 553.885254
24.708153 83.066490 553.813904
24.704077 83.705093 553.687134
24.700012 84.343544 553.560425
25.328543 88.827728 552.784729
25.324476 89.465057 552.658203
25.320423 90.102234 552.531677
25.316381 90.739265 552.405212
25.640575 91.386169 552.334045
25.636509 92.022964 552.207581
25.632454 92.659607 552.081177
25.628412 93.296104 551.954834
25.624382 93.932457 551.828491
25.620365 94.568657 551.702209
25.616360 95.204720 551.575928
25.940317 95.851151 551.504822
25.936287 96.486984 551.378601
25.932270 97.122681 551.252380
25.928265 97.758232 551.126221
25.924273 98.393639 551.000061
25.920292 99.028908 550.873962
26.244055 99.674980 550.802856
26.240049 100.310036 550.676758
26.236057 100.944954 550.550720
26.232077 101.579735 550.424744
26.228107 102.214386 550.298767
26.224152 102.848892 550.172791
26.220207 103.483269 550.046875
26.216274 104.117508 549.920959
26.212353 104.751610 549.795105
26.535824 105.397148 549.724060
26.531879 106.031052 549.598206
26.527946 106.664833 549.472412
26.524027 107.298477 549.346619
26.520117 107.931992 549.220886
26.841476 108.893967 549.086975
26.837551 109.527229 548.961304
26.833635 110.160362 548.835632
26.829733 110.793365 548.709961
27.152937 111.438477 548.638977
27.149010 112.071297 548.513367
27.145098 112.703995 548.387756
27.468227 113.349007 548.316772
27.464293 113.981522 548.191223
27.460367 114.613914 548.065674
27.783430 115.258842 547.994690
27.779486 115.891060 547.869202
27.775551 116.523148 547.743713
6.297699 -19.467554 570.846497
6.631301 -18.795509 570.771973
6.629659 -18.121765 570.638672
6.963083 -17.450218 570.564270
6.961364 -16.777109 570.431091
6.959648 -16.104349 570.297974
7.292817 -15.433574 570.223633
7.291025 -14.761442 570.090576
7.624021 -14.091150 570.016357
7.622153 -13.419638 569.883423
7.620290 -12.748469 569.750610
7.953037 -12.078927 569.676453
7.951100 -11.408370 569.543701
8.283679 -10.739297 569.469604
8.281668 -10.069346 569.336975
8.279661 -9.399732 569.204468
8.277659 -8.730452 569.071960
8.609919 -8.062369 568.997986
8.607845 -7.393684 568.865662
8.605776 -6.725329 568.733337
8.603712 -6.057304 568.601074
8.935657 -5.390188 568.527283
8.933522 -4.722746 568.395142
9.919254 -0.059726 567.646423
9.916924 0.605369 567.514709
9.914600 1.270151 567.383057
10.245701 1.934810 567.309570
10.895067 6.579330 566.505859
10.892565 7.241564 566.374695
10.890070 7.903498 566.243530
10.887582 8.565133 566.112488
10.885100 9.226473 565.981506
11.215339 9.888549 565.908386
11.212794 10.549369 565.777466
11.210256 11.209896 565.646606
11.207725 11.870132 565.515869
11.537688 12.531391 565.442810
11.535095 13.191118 565.312134
11.532509 13.850558 565.181519
11.529930 14.509713 565.050903
11.859621 15.170177 564.978027
12.505020 19.779072 564.180603
12.502285 20.435923 564.050476
12.499558 21.092503 563.920410
12.496838 21.748810 563.790344
12.494126 22.404848 563.660339
12.823035 23.063053 563.587769
12.820267 23.718626 563.457825
12.817505 24.373932 563.328003
12.814752 25.028975 563.198181
12.812005 25.683752 563.068420
12.809266 26.338270 562.938782
13.137801 26.995380 562.866333
13.135007 27.649448 562.736694
13.132222 28.303255 562.607117
13.460574 28.959873 562.534729
13.457735 29.613239 562.405273
13.454903 30.266352 562.275818
13.452079 30.919210 562.146484
13.449263 31.571817 562.017151
13.446454 32.224174 561.887878
13.774448 32.879768 561.815613
13.771588 33.531696 561.686401
13.768735 34.183380 561.557251
13.765890 34.834816 561.428162
14.093652 35.489777 561.356018
14.090756 36.140797 561.226990
14.087869 36.791576 561.097961
14.084989 37.442116 560.969055
14.082118 38.092415 560.840149
14.079254 38.742477 560.711304
14.076399 39.392303 560.582520
14.403761 40.046146 560.510559
14.400856 40.695572 560.381836
14.728111 41.349159 560.309814
14.725158 41.998188 560.181213
14.722214 42.646988 560.052612
14.719277 43.295559 559.924072
14.716349 43.943905 559.795532
14.713430 44.592018 559.667053
14.710518 45.239910 559.538696
14.707615 45.887581 559.410278
14.704720 46.535027 559.281982
14.700393 47.505779 559.089600
15.027074 48.157787 559.017822
15.353710 48.809723 558.946045
15.350727 49.456314 558.817871
15.347753 50.102692 558.689758
15.344787 50.748852 558.561646
15.341830 51.394802 558.433655
15.338881 52.040535 558.305664
15.335941 52.686058 558.177673
15.333009 53.331371 558.049805
15.659231 53.982220 557.978149
15.656255 54.627182 557.850342
15.653288 55.271938 557.722534
15.650329 55.916489 557.594727
15.647379 56.560837 557.467041
15.973354 57.211067 557.395508
15.970361 57.855076 557.267822
15.967377 58.498882 557.140198
15.964401 59.142487 557.012634
15.961434 59.785896 556.885071
16.287169 60.435539 556.813599
16.284161 61.078621 556.686157
16.281160 61.721504 556.558716
16.278170 62.364197 556.431274
16.275187 63.006695 556.303955
16.272215 63.648998 556.176636
16.269249 64.291107 556.049316
16.266293 64.933037 555.922119
16.261873 65.895561 555.731323
16.587154 66.544098 555.659973
16.912403 67.192596 555.588623
16.909372 67.833809 555.461548
16.906349 68.474838 555.334473
16.903337 69.115685 555.207397
16.900331 69.756355 555.080383
17.225361 70.404343 555.009155
17.222317 71.044716 554.882202
17.219282 71.684906 554.755310
17.542650 72.652618 554.620605
17.867504 73.300262 554.549377
17.864391 73.939972 554.422546
17.861288 74.579506 554.295776
18.186022 75.226906 554.224548
18.182882 75.866165 554.097839
18.179752 76.505249 553.971069
18.504372 77.152412 553.899902
18.501205 77.791222 553.773254
18.498051 78.429863 553.646606
18.820957 79.396019 553.512207
19.145416 80.042892 553.441040
19.142187 80.681084 553.314514
19.138968 81.319107 553.187988
19.135757 81.956978 553.061462
19.132559 82.594681 552.935059
19.456821 83.241150 552.863953
19.453587 83.878593 552.737549
19.450363 84.515884 552.611145
19.447149 85.153015 552.484802
19.443945 85.789986 552.358521
19.768019 86.436081 552.287476
19.764782 87.072807 552.161194
19.761555 87.709373 552.034973
19.758335 88.345795 551.908752
20.082266 88.991615 551.837708
20.079018 89.627792 551.711548
20.075777 90.263824 551.585449
20.072548 90.899696 551.459351
20.069326 91.535431 551.333252
20.066116 92.171005 551.207214
20.389826 92.816406 551.136230
20.386583 93.451759 551.010254
20.383352 94.086967 550.884277
20.380131 94.722023 550.758362
20.376919 95.356941 550.632446
20.373714 95.991714 550.506592
20.370522 96.626343 550.380737
20.367336 97.260826 550.254944
20.364161 97.895172 550.129150
20.993187 102.670387 549.296082
20.989994 103.303696 549.170471
20.986813 103.936874 549.044922
21.290758 108.377068 548.221375
21.287603 109.009270 548.096008
21.610405 109.653122 548.025146
21.607224 110.285133 547.899841
21.604050 110.917023 547.774536
21.600885 111.548782 547.649231
21.597729 112.180420 547.523987
21.594582 112.811935 547.398804
21.591444 113.443321 547.273560
21.914024 114.086838 547.202759
21.910858 114.718056 547.077637
21.907703 115.349144 546.952454
21.904556 115.980110 546.827393
22.227024 116.623489 546.756592
22.223850 117.254288 546.631470
22.220686 117.884956 546.506409
0.942980 -18.425997 569.707336
0.942778 -17.753622 569.574585
1.276413 -17.083351 569.500427
1.276126 -16.411610 569.367737
1.275838 -15.740219 569.235168
1.609205 -15.070719 569.161072
1.608834 -14.399952 569.028625
1.608462 -13.729529 568.896179
1.941564 -13.060789 568.822266
1.941110 -12.390982 568.689941
1.940656 -11.721515 568.557678
1.940202 -11.052386 568.425537
1.939293 -9.715139 568.161377
2.272961 -10.384662 568.351685
3.267572 -5.713733 567.602966
3.266799 -5.047313 567.471252
3.266027 -4.381217 567.339661
3.265256 -3.715444 567.208069
3.264486 -3.049993 567.076538
3.920099 3.918990 565.815063
4.255494 1.599762 566.331360
4.254500 2.262897 566.200256
4.253507 2.925724 566.069275
4.256490 0.936316 566.462524
5.240928 7.889640 565.261414
5.239724 8.550102 565.130798
5.238522 9.210268 565.000305
5.237323 9.870140 564.869812
5.891061 14.484094 564.072876
5.889734 15.141796 563.942810
5.888411 15.799216 563.812805
6.218008 16.458050 563.740173
6.216618 17.114979 563.610291
6.546074 17.773460 563.537720
6.544617 18.429899 563.407837
6.543164 19.086065 563.278076
6.541714 19.741957 563.148315
6.540267 20.397575 563.018616
6.869378 21.055096 562.946228
6.867867 21.710239 562.816589
6.866359 22.365116 562.687073
6.864855 23.019726 562.557556
7.193696 23.676512 562.485229
7.192128 24.330656 562.355835
7.190564 24.984539 562.226440
7.189004 25.638159 562.097168
7.187447 26.291517 561.967896
7.185893 26.944616 561.838684
7.514339 27.600309 561.766479
7.512724 28.252960 561.637390
7.511113 28.905357 561.508301
7.509506 29.557499 561.379272
7.837694 30.212511 561.307190
7.836026 30.864214 561.178223
7.834363 31.515667 561.049316
7.832703 32.166870 560.920471
7.831047 32.817825 560.791687
7.829396 33.468536 560.662903
7.827748 34.118999 560.534241
8.155495 34.772816 560.462280
8.153789 35.422859 560.333679
8.152087 36.072662 560.205078
8.479651 36.726028 560.133179
8.477891 37.375416 560.004700
8.476136 38.024567 559.876221
8.474385 38.673485 559.747803
8.472639 39.322163 559.619446
8.470896 39.970608 559.491150
8.469158 40.618820 559.362854
8.467424 41.266800 559.234619
8.464832 42.238338 559.042358
9.116923 44.189034 558.770935
9.115086 44.835896 558.642944
9.113254 45.482533 558.514954
9.111426 46.128948 558.387024
9.109603 46.775143 558.259155
9.107784 47.421116 558.131287
9.105970 48.066868 558.003479
9.749314 52.592022 557.222290
9.747415 53.236198 557.094788
9.745521 53.880169 556.967346
9.743631 54.523930 556.839905
10.058006 59.030678 556.005005
10.056097 59.672890 555.877869
10.054192 60.314903 555.750793
10.052292 60.956718 555.623779
10.377700 61.604736 555.552551
10.375752 62.246231 555.425537
10.373809 62.887535 555.298645
10.699071 63.535244 555.227478
10.697081 64.176231 555.100586
10.695097 64.817024 554.973694
10.693117 65.457634 554.846924
10.691143 66.098053 554.720154
11.015148 67.065308 554.585632
11.340101 67.712379 554.514587
11.338033 68.352280 554.387878
11.335971 68.992004 554.261230
11.333914 69.631546 554.134583
11.658679 70.278229 554.063538
11.656578 70.917473 553.937012
11.981259 71.564003 553.865967
11.979115 72.202957 553.739441
11.976976 72.841736 553.612976
11.974842 73.480347 553.486511
12.299343 74.126511 553.415527
12.623812 74.772636 553.344543
12.948248 75.418739 553.273560
12.945976 76.056854 553.147156
12.943711 76.694794 553.020813
12.941452 77.332565 552.894531
13.265716 77.978325 552.823547
13.263416 78.615829 552.697327
13.261122 79.253159 552.571106
13.258835 79.890327 552.444885
13.581766 80.854240 552.310913
13.579442 81.491066 552.184814
13.903440 82.136337 552.113892
13.901077 82.772903 551.987793
13.898721 83.409309 551.861755
13.896371 84.045563 551.735718
13.894028 84.681648 551.609741
13.891691 85.317581 551.483765
13.889360 85.953362 551.357849
13.887036 86.588982 551.231995
14.210695 87.233589 551.161133
14.208333 87.868965 551.035278
14.531924 88.513474 550.964478
14.529525 89.148613 550.838684
14.527133 89.783600 550.712891
14.524747 90.418442 550.587158
14.522368 91.053123 550.461426
14.519995 91.687668 550.335754
14.517629 92.322060 550.210083
14.514092 93.273369 550.021667
14.837338 93.917252 549.950928
14.834946 94.551193 549.825317
14.832561 95.184998 549.699829
14.830181 95.818665 549.574280
15.153282 96.462303 549.503540
15.150868 97.095749 549.378052
15.148460 97.729050 549.252625
15.146059 98.362213 549.127197
15.143665 98.995239 549.001831
15.141277 99.628120 548.876465
15.464154 100.271400 548.805786
15.461732 100.904076 548.680420
15.459316 101.536621 548.555115
15.456908 102.169022 548.429871
15.454505 102.801300 548.304626
15.452109 103.433434 548.179382
15.449720 104.065445 548.054199
15.447337 104.697319 547.929077
15.444960 105.329063 547.803955
15.442589 105.960678 547.678833
15.765092 106.603348 547.608154
15.762688 107.234772 547.483093
15.760292 107.866058 547.358032
15.757901 108.497223 547.233032
16.080273 109.139717 547.162415
16.077850 109.770699 547.037415
16.075434 110.401543 546.912415
16.073025 111.032272 546.787476
16.070621 111.662872 546.662598
16.392828 112.305145 546.591980
16.390392 112.935570 546.467102
16.387964 113.565865 546.342224
16.385542 114.196037 546.217407
16.383125 114.826096 546.092590
16.380716 115.456032 545.967834
16.378311 116.085846 545.843079
16.700283 116.727798 545.772461
16.697849 117.357445 545.647705
16.695421 117.986961 545.523010
16.693001 118.616371 545.398315
16.690584 119.245659 545.273682
-4.722994 -17.387779 568.514587
-4.721774 -16.717091 568.382385
-4.387980 -16.048342 568.308533
-4.386853 -15.378280 568.176453
-4.385731 -14.708566 568.044434
-4.052217 -14.040587 567.970703
-4.051185 -13.371491 567.838806
-4.050158 -12.702737 567.706970
-3.716921 -12.035517 567.633362
-3.715984 -11.367373 567.501587
-3.715051 -10.699567 567.369934
-3.714122 -10.032096 567.238342
-3.381242 -9.365887 567.164856
-3.380401 -8.699016 567.033325
-2.709526 -1.716907 565.771851
-2.380570 -4.373652 566.353699
-2.379995 -3.709028 566.222595
-2.379423 -3.044725 566.091553
-2.378853 -2.380741 565.960571
-1.382238 2.259023 565.218323
-1.381922 2.920705 565.087769
-1.381610 3.582081 564.957275
-1.381299 4.243152 564.826782
-1.380991 4.903919 564.696411
-0.719079 6.555837 564.485657
-0.718929 7.215685 564.355469
-0.718781 7.875236 564.225281
-0.718635 8.534490 564.095154
-0.718491 9.193450 563.965088
-0.718348 9.852116 563.835083
-0.387980 10.511548 563.762451
-0.387915 11.169698 563.632568
-0.057706 11.828750 563.559998
-0.057718 12.486389 563.430176
-0.057731 13.143741 563.300415
-0.057745 13.800809 563.170654
-0.057761 14.457593 563.041016
0.272070 15.115615 562.968628
0.271979 15.771901 562.839050
0.271887 16.427908 562.709534
0.271794 17.083635 562.580017
0.271700 17.739086 562.450623
0.601159 18.396114 562.378357
0.600992 19.051081 562.249023
0.600824 19.705774 562.119751
0.600654 20.360195 561.990540
0.929821 21.016464 561.918335
0.929580 21.670412 561.789185
0.929338 22.324093 561.660095
0.929096 22.977507 561.531067
0.928852 23.630655 561.402100
0.928608 24.283541 561.273132
1.257348 24.938677 561.201111
1.257034 25.591103 561.072266
1.256719 26.243269 560.943481
1.256404 26.895178 560.814697
1.584865 27.549606 560.742798
1.584481 28.201065 560.614075
1.584096 28.852272 560.485474
1.583712 29.503223 560.356873
1.583327 30.153925 560.228333
1.582942 30.804373 560.099854
1.910994 31.457745 560.028076
1.910541 32.107761 559.899658
2.238459 32.760838 559.827942
2.237940 33.410427 559.699585
2.237421 34.059772 559.571289
2.236903 34.708874 559.443054
2.236385 35.357731 559.314880
2.235867 36.006348 559.186707
2.235349 36.654728 559.058655
2.886974 41.195095 558.275879
2.886331 41.841732 558.148132
2.885687 42.488140 558.020386
2.885045 43.134319 557.892700
3.211872 43.784702 557.821289
3.211168 44.430496 557.693665
3.210464 45.076069 557.566101
3.209762 45.721420 557.438599
3.209060 46.366547 557.311096
3.208358 47.011456 557.183655
3.207658 47.656147 557.056274
3.206958 48.300617 556.928894
3.206260 48.944874 556.801575
3.205561 49.588917 556.674316
3.531781 50.237820 556.603088
3.857946 50.886642 556.531860
3.857129 51.530174 556.404663
3.856313 52.173492 556.277527
3.855499 52.816605 556.150452
3.854685 53.459511 556.023376
3.853873 54.102203 555.896362
3.853061 54.744694 555.769348
3.852251 55.386978 555.642395
4.498997 59.889454 554.866272
4.498080 60.530270 554.739624
4.497164 61.170891 554.612976
4.496250 61.811317 554.486389
4.821401 62.457878 554.415466
4.820433 63.097988 554.288879
4.819466 63.737904 554.162415
4.818501 64.377632 554.035950
5.143441 65.023766 553.965027
5.142423 65.663185 553.838623
5.141407 66.302414 553.712219
5.140393 66.941460 553.585938
5.139381 67.580322 553.459595
5.138370 68.219002 553.333374
6.432975 72.714256 552.671570
6.757283 73.359238 552.600830
6.756020 73.996635 552.474731
6.754759 74.633865 552.348755
7.078927 75.278595 552.277954
7.720140 79.749985 551.507019
7.718746 80.385895 551.381226
7.717355 81.021645 551.255493
7.715968 81.657227 551.129761
8.355903 86.119476 550.360352
8.354439 86.753929 550.234863
8.352979 87.388229 550.109375
8.351522 88.022377 549.983948
8.674750 88.665443 549.913330
8.997950 89.308495 549.842712
8.996404 89.942322 549.717346
8.994861 90.575989 549.591980
8.993322 91.209518 549.466614
8.991787 91.842896 549.341309
8.990255 92.476128 549.216064
8.988726 93.109207 549.090820
8.987201 93.742149 548.965576
9.309274 94.700989 548.832458
9.307709 95.333641 548.707275
9.306148 95.966141 548.582092
9.304591 96.598503 548.457031
9.627268 97.240700 548.386475
9.625671 97.872841 548.261414
9.624077 98.504852 548.136353
9.622487 99.136726 548.011353
9.620900 99.768456 547.886353
9.619318 100.400055 547.761353
9.617738 101.031517 547.636414
9.940134 101.673271 547.565979
9.938515 102.304527 547.441040
9.936901 102.935654 547.316162
9.935290 103.566650 547.191345
9.933682 104.197510 547.066467
9.932079 104.828239 546.941711
9.930479 105.458839 546.816895
9.928882 106.089310 546.692200
10.250146 107.045746 546.559387
10.572188 107.687012 546.488892
10.570515 108.317162 546.364197
10.568845 108.947189 546.239563
10.567179 109.577087 546.114929
10.565517 110.206863 545.990295
10.563859 110.836510 545.865662
10.562204 111.466034 545.741089
10.560553 112.095444 545.616577
10.558906 112.724724 545.492065
10.557262 113.353882 545.367554
10.878925 113.994614 545.297119
10.877245 114.623596 545.172668
10.875569 115.252457 545.048218
10.873896 115.881203 544.923828
10.872228 116.509827 544.799438
11.193719 117.150360 544.729004
11.192015 117.778809 544.604675
11.190315 118.407143 544.480286
11.188618 119.035362 544.356018
11.186925 119.663467 544.231689
11.185236 120.291458 544.107422
-10.364579 -16.020214 567.261047
-10.361964 -15.351344 567.129456
-10.359358 -14.682818 566.997925
-10.025512 -14.015974 566.924500
-10.023006 -13.348067 566.793091
-10.020508 -12.680499 566.661743
-9.686952 -12.014418 566.588379
-9.684552 -11.347461 566.457092
-9.351193 -10.681860 566.383850
-9.348891 -10.015508 566.252686
-9.346596 -9.349489 566.121582
-9.344310 -8.683801 565.990601
-9.011323 -8.019207 565.917419
-8.335652 -3.370992 565.117554
-8.333672 -2.708028 564.987061
-8.331700 -2.045381 564.856567
-7.999623 -1.383172 564.783691
-7.997743 -0.721091 564.653320
-7.665850 -0.059316 564.580566
-7.664060 0.602205 564.450256
-7.662277 1.263416 564.320068
-7.660501 1.924318 564.189880
-7.328955 2.585176 564.117188
-7.327269 3.245529 563.987122
-7.325588 3.905578 563.857117
-7.323915 4.565323 563.727173
-6.992712 5.225287 563.654602
-6.322826 10.164117 562.796387
-6.321434 10.821242 562.666931
-6.320047 11.478079 562.537476
-6.318666 12.134629 562.408081
-5.988417 12.792151 562.335876
-5.987120 13.448194 562.206604
-5.985829 14.103953 562.077332
-5.984543 14.759430 561.948181
-5.654614 15.416142 561.876038
-5.653411 16.071123 561.746948
-5.652212 16.725824 561.617920
-5.651020 17.380251 561.488892
-5.649832 18.034403 561.359985
-5.320294 18.690115 561.287964
-4.984721 23.262419 560.443787
-4.983718 23.914276 560.315308
-4.982720 24.565874 560.186829
-4.320625 29.450405 559.337952
-4.319800 30.099953 559.209839
-4.317351 32.047096 558.825867
-3.991641 30.752272 559.138306
-3.990891 31.401382 559.010254
-3.660860 33.998711 558.555054
-3.660195 34.646660 558.427246
-3.659534 35.294369 558.299500
-3.658877 35.941837 558.171814
-3.658224 36.589069 558.044128
-3.657574 37.236061 557.916504
-3.656606 38.206108 557.725159
-3.329317 38.856335 557.653870
-3.328744 39.502571 557.526367
-3.001590 40.152523 557.455139
-3.001088 40.798359 557.327698
-3.000589 41.443966 557.200317
-3.000093 42.089344 557.072998
-2.999600 42.734493 556.945740
-2.999110 43.379417 556.818481
-2.998624 44.024120 556.691284
-2.671933 44.672993 556.620178
-2.671516 45.317310 556.493042
-2.671101 45.961407 556.365967
-2.670689 46.605286 556.238892
-2.670280 47.248943 556.111877
-2.669875 47.892387 555.984924
-2.669472 48.535610 555.858032
-2.669072 49.178619 555.731140
-2.668676 49.821419 555.604309
-2.668086 50.785213 555.414124
-2.015975 52.400803 555.208862
-2.015712 53.042671 555.082214
-2.015452 53.684334 554.955566
-2.015195 54.325790 554.828979
-2.014940 54.967045 554.702454
-2.014688 55.608093 554.575928
-2.014438 56.248940 554.449463
-2.014191 56.889584 554.322998
-1.688750 57.535694 554.252197
-1.688566 58.176006 554.125854
-1.688384 58.816116 553.999512
-1.363119 59.461891 553.928711
-1.362999 60.101673 553.802429
-1.362881 60.741261 553.676208
-1.362766 61.380653 553.549988
-1.362653 62.019852 553.423828
-1.362541 62.658863 553.297668
-0.388212 67.146538 552.581604
-0.063674 67.790955 552.510925
-0.063802 68.428535 552.385010
-0.063930 69.065941 552.259155
0.260448 69.710068 552.188599
1.231902 74.188217 551.473877
1.231549 74.824287 551.348206
1.231195 75.460197 551.222595
1.230841 76.095932 551.097046
1.554663 76.739128 551.026550
2.199619 81.200050 550.258301
2.199106 81.834488 550.132935
2.198592 82.468773 550.007629
2.198079 83.102890 549.882385
2.521370 83.745201 549.811951
2.844624 84.387497 549.741455
2.844010 85.021271 549.616272
2.843396 85.654884 549.491028
2.842782 86.288353 549.365906
2.842169 86.921661 549.240784
2.841555 87.554825 549.115662
2.840943 88.187836 548.990601
2.840330 88.820694 548.865540
2.839105 90.085960 548.615540
3.163203 89.462326 548.795166
3.161881 90.727425 548.545166
3.484625 91.368881 548.474792
3.483917 92.001122 548.349854
3.483209 92.633217 548.224915
3.482502 93.265167 548.100037
3.481795 93.896980 547.975220
3.481089 94.528641 547.850403
3.480383 95.160164 547.725586
3.802436 96.116791 547.592896
3.801685 96.748032 547.468140
3.800934 97.379120 547.343384
3.800184 98.010078 547.218689
3.799434 98.640900 547.094055
4.121627 99.281509 547.023743
4.120832 99.912117 546.899109
4.120038 100.542587 546.774475
4.119245 101.172928 546.649902
4.118057 102.118187 546.463074
4.440019 102.758476 546.392822
4.439183 103.388412 546.268311
4.438348 104.018219 546.143860
4.437514 104.647896 546.019409
4.436681 105.277435 545.894958
4.435848 105.906853 545.770569
4.435017 106.536148 545.646179
4.434186 107.165306 545.521790
4.433356 107.794342 545.397461
4.754943 108.434097 545.327271
4.754070 109.062950 545.202942
5.075592 109.702660 545.132690
5.074678 110.331314 545.008423
5.073765 110.959846 544.884216
5.072853 111.588264 544.760010
5.071942 112.216553 544.635803
5.071032 112.844727 544.511597
5.070123 113.472771 544.387451
5.069215 114.100700 544.263367
5.706179 118.830215 543.440674
5.705196 119.457268 543.316711
5.704215 120.084213 543.192810
5.703234 120.711044 543.068848
5.702254 121.337753 542.944946
5.701276 121.964363 542.821106
-16.312849 -14.658040 565.955139
-15.978627 -13.992294 565.881958
-15.974656 -13.325538 565.751038
-15.970697 -12.659120 565.620117
-15.636778 -11.994142 565.547058
-15.632926 -11.328335 565.416321
-15.629086 -10.662862 565.285583
-15.295467 -9.998638 565.212646
-15.291732 -9.333767 565.082031
-15.288010 -8.669226 564.951477
-15.284300 -8.005014 564.820984
-14.951068 -7.341797 564.748169
-14.947462 -6.678175 564.617798
-14.614431 -6.015422 564.544983
-14.610927 -5.352385 564.414734
-14.607435 -4.689670 564.284485
-14.603954 -4.027275 564.154297
-14.271303 -3.365494 564.081665
-14.267923 -2.703673 563.951599
-14.264555 -2.042168 563.821594
-13.932188 -1.381087 563.749023
-13.928919 -0.720147 563.619141
-13.925662 -0.059519 563.489258
-13.593576 0.600876 563.416809
-13.590417 1.260946 563.287048
-13.587270 1.920709 563.157349
-13.584133 2.580165 563.027710
-13.581007 3.239317 562.898071
-13.249371 3.898554 562.825745
-13.246342 4.557162 562.696289
-13.243323 5.215469 562.566833
-12.911959 5.874052 562.494568
-12.909036 6.531824 562.365234
-12.906124 7.189300 562.235962
-12.575027 7.847242 562.163757
-12.572210 8.504190 562.034607
-12.569402 9.160846 561.905457
-12.566604 9.817210 561.776367
-12.563817 10.473285 561.647278
-12.233151 11.130144 561.575256
-12.230456 11.785705 561.446350
-12.227771 12.440980 561.317444
-12.225096 13.095970 561.188599
-12.222431 13.750678 561.059814
-11.559544 15.716132 560.787354
-11.557060 16.369844 560.658752
-11.554585 17.023279 560.530151
-11.552119 17.676439 560.401611
-11.549663 18.329327 560.273193
-11.547215 18.981941 560.144775
-11.544777 19.634285 560.016418
-10.874592 24.197836 559.232300
-10.872364 24.848179 559.104309
-10.870144 25.498264 558.976379
-10.867933 26.148092 558.848450
-10.200426 30.695633 558.067078
-10.198416 31.343563 557.939514
-10.196414 31.991249 557.811951
-10.193426 32.962318 557.620789
-9.535844 34.909492 557.351013
-9.534016 35.555965 557.223694
-9.532195 36.202202 557.096436
-9.530382 36.848198 556.969238
-9.528577 37.493961 556.842041
-9.526779 38.139488 556.714905
-9.524989 38.784782 556.587830
-8.862414 43.303688 555.811218
-8.860807 43.947281 555.684448
-8.859208 44.590649 555.557739
-8.856822 45.555286 555.367676
-8.530301 46.202530 555.296875
-8.528787 46.845188 555.170227
-8.527280 47.487633 555.043701
-8.525779 48.129860 554.917175
-8.524286 48.771873 554.790649
-8.522799 49.413670 554.664246
-8.521318 50.055256 554.537842
-8.519845 50.696632 554.411438
-8.193862 51.342712 554.340759
-8.192461 51.983727 554.214417
-7.866609 52.629578 554.143738
-7.865280 53.270241 554.017456
-7.863957 53.910698 553.891296
-7.862641 54.550949 553.765137
-7.861331 55.190998 553.638977
-7.860027 55.830845 553.512878
-7.858730 56.470490 553.386841
-7.857438 57.109936 553.260803
-7.855512 58.068729 553.071899
-7.530271 58.713306 553.001343
-7.529058 59.352123 552.875427
-7.527851 59.990742 552.749573
-7.202796 60.634983 552.679016
-7.201658 61.273277 552.553223
-7.200525 61.911381 552.427429
-7.199398 62.549290 552.301697
-7.198277 63.187012 552.176025
-7.197161 63.824547 552.050354
-6.872472 64.468079 551.979919
-5.571860 68.951302 551.321594
-5.571066 69.587486 551.196106
-5.570276 70.223495 551.070679
-5.569491 70.859329 550.945313
-5.245066 71.819679 550.812256
-4.272167 75.016991 550.350647
-4.271626 75.651772 550.225464
-4.271089 76.286385 550.100281
-4.270555 76.920822 549.975098
-4.270025 77.555099 549.849976
-3.946523 78.196793 549.779663
-3.946052 78.830803 549.654602
-3.622650 79.472359 549.584351
-3.622238 80.106102 549.459290
-3.621829 80.739677 549.334290
-3.298580 81.381004 549.264038
-3.298228 82.014328 549.139038
-3.297880 82.647491 549.014099
-3.297535 83.280495 548.889221
-3.297193 83.913345 548.764343
-2.974057 84.870567 548.631714
-2.973772 85.503090 548.506897
-2.973491 86.135460 548.382080
-2.973212 86.767670 548.257324
-2.972936 87.399734 548.132568
-2.650220 88.040207 548.062378
-2.649999 88.672028 547.937683
-2.649781 89.303703 547.813049
-2.649566 89.935226 547.688416
-2.649353 90.566605 547.563782
-2.326880 91.206711 547.493652
-2.326721 91.837852 547.369080
-2.326565 92.468857 547.244507
-2.326411 93.099709 547.119995
-2.326259 93.730423 546.995544
-2.004024 94.370186 546.925415
-2.003925 95.000671 546.800964
-2.003828 95.631020 546.676514
-2.003734 96.261230 546.552124
-2.003596 97.206284 546.365540
-2.003508 97.836143 546.241211
-1.681577 98.475471 546.171143
-1.681539 99.105118 546.046875
-1.681504 99.734634 545.922546
-1.681471 100.364014 545.798340
-1.681440 100.993263 545.674133
-1.681411 101.622375 545.549927
-1.681384 102.251358 545.425720
-1.681360 102.880203 545.301575
-1.038635 107.299446 544.541199
-1.038715 107.927391 544.417236
-1.038798 108.555206 544.293274
-0.717677 109.507393 544.161255
-0.717808 110.134964 544.037354
-0.717940 110.762405 543.913452
-0.718074 111.389732 543.789612
-0.718210 112.016930 543.665771
-0.718347 112.644012 543.541931
-0.718486 113.270973 543.418152
-0.718627 113.897820 543.294373
-0.718769 114.524544 543.170593
-0.718913 115.151146 543.046875
-0.078638 119.557465 542.288574
-0.078878 120.183266 542.165039
-0.079119 120.808952 542.041443
-0.079361 121.434532 541.917908
-0.079605 122.059990 541.794373
0.240704 122.697342 541.724426
0.240418 123.322639 541.600891
-22.238895 -13.635468 564.720093
-21.904400 -12.971202 564.647278
-21.898998 -12.306066 564.516907
-21.893616 -11.641265 564.386597
-21.559435 -10.977765 564.313904
-21.554165 -10.313570 564.183655
-21.548910 -9.649706 564.053528
-21.215042 -8.986959 563.980896
-21.209902 -8.323692 563.850830
-21.204777 -7.660753 563.720886
-21.199669 -6.998139 563.590942
-20.866205 -6.336394 563.518433
-20.861208 -5.674366 563.388611
-20.527952 -5.013086 563.316162
-20.523066 -4.351639 563.186401
-20.518194 -3.690510 563.056763
-20.513338 -3.029698 562.927124
-20.180477 -2.369388 562.854797
-20.175732 -1.709145 562.725281
-20.171001 -1.049216 562.595825
-19.838436 -0.389603 562.523621
-19.833813 0.269765 562.394226
-19.829205 0.928824 562.264954
-19.496931 1.587751 562.192749
-19.492430 2.246258 562.063538
-19.487942 2.904459 561.934387
-19.483471 3.562358 561.805298
-19.151577 4.220371 561.733276
-19.147209 4.877727 561.604248
-19.142857 5.534785 561.475281
-19.138517 6.191544 561.346375
-19.134193 6.848008 561.217529
-19.129885 7.504176 561.088745
-18.120121 12.092623 560.358948
-18.116144 12.746660 560.230530
-18.112183 13.400414 560.102112
-18.108232 14.053887 559.973816
-17.428766 18.623905 559.190063
-17.425066 19.275293 559.062134
-17.421379 19.926413 558.934204
-17.417706 20.577265 558.806335
-17.088133 21.229828 558.734985
-17.084555 21.880205 558.607239
-17.080990 22.530319 558.479492
-17.077436 23.180168 558.351807
-17.073896 23.829758 558.224182
-16.744741 24.481367 558.152954
-16.741295 25.130495 558.025391
-16.737862 25.779366 557.897888
-16.734440 26.427980 557.770447
-16.731031 27.076338 557.643005
-16.402287 27.727024 557.571899
-16.398970 28.374935 557.444580
-16.395664 29.022596 557.317261
-16.067165 29.672770 557.246155
-16.063951 30.319988 557.118958
-16.060749 30.966961 556.991821
-16.057558 31.613688 556.864685
-16.054380 32.260166 556.737610
-16.051214 32.906406 556.610596
-16.046488 33.875305 556.420105
-15.718576 34.524151 556.349182
-15.715516 35.169601 556.222290
-15.712468 35.814816 556.095459
-15.709431 36.459793 555.968628
-15.381830 37.107986 555.897827
-15.378880 37.752556 555.771057
-15.375941 38.396885 555.644348
-15.373014 39.040985 555.517700
-15.370098 39.684856 555.391113
-15.042875 40.332249 555.320374
-15.040045 40.975719 555.193848
-15.037225 41.618961 555.067322
-15.034416 42.261978 554.940857
-15.031618 42.904770 554.814453
-14.704767 43.551395 554.743774
-14.702053 44.193798 554.617432
-14.699350 44.835983 554.491150
-14.696657 45.477947 554.364868
-14.693975 46.119690 554.238647
-14.691304 46.761215 554.112427
-14.364887 47.406940 554.041870
-14.362298 48.048096 553.915771
-14.359718 48.689034 553.789673
-14.357150 49.329762 553.663635
-14.354591 49.970276 553.537598
-14.352043 50.610580 553.411682
-14.349505 51.250675 553.285706
-14.346978 51.890560 553.159851
-14.343206 52.850002 552.971069
-14.017456 53.494350 552.900696
-14.015023 54.133575 552.774902
-13.689411 54.777699 552.704529
-13.687056 55.416576 552.578796
-13.684711 56.055256 552.453125
-13.682376 56.693729 552.327454
-13.680050 57.332008 552.201843
-13.677734 57.970089 552.076294
-13.675428 58.607975 551.950806
-13.673132 59.245663 551.825256
-13.348057 59.888737 551.755005
-13.345837 60.526096 551.629578
-13.020893 61.168968 551.559326
-13.018747 61.806004 551.433899
-13.016611 62.442848 551.308533
-12.691861 63.085396 551.238342
-12.689798 63.721924 551.113037
-12.687745 64.358261 550.987732
-12.685700 64.994415 550.862488
-12.361205 65.636520 550.792297
-12.359233 66.272362 550.667114
-11.057830 70.427345 550.073730
-11.056137 71.062080 549.948730
-11.054451 71.696640 549.823730
-11.052773 72.331024 549.698792
-10.728970 72.972099 549.628723
-10.405223 73.613129 549.558594
-10.403673 74.247116 549.433716
-10.080038 74.887993 549.363586
-10.078555 75.521698 549.238770
-10.077079 76.155243 549.113953
-9.753616 76.795860 549.043884
-9.752206 77.429131 548.919067
-9.750803 78.062233 548.794312
-9.749406 78.695168 548.669617
-9.426169 79.335434 548.599609
-9.424837 79.968109 548.474915
-9.423512 80.600616 548.350281
-9.100438 81.240646 548.280212
-9.099177 81.872894 548.155640
-9.097922 82.504990 548.031067
-9.096673 83.136925 547.906555
-9.095431 83.768700 547.782043
-9.094195 84.400322 547.657532
-9.092966 85.031792 547.533081
-9.091743 85.663109 547.408691
-9.090526 86.294273 547.284302
-8.767948 86.933502 547.214355
-8.445415 87.572708 547.144348
-8.444315 88.203537 547.020020
-8.443220 88.834213 546.895691
-8.442131 89.464745 546.771423
-8.441048 90.095123 546.647156
-8.439971 90.725357 546.522949
-8.438900 91.355453 546.398743
-8.436775 92.615196 546.150391
-8.116734 91.994110 546.328796
-8.114716 93.253685 546.080505
-8.113715 93.883263 545.956360
-8.112720 94.512695 545.832275
-7.790806 95.151009 545.762390
-7.789869 95.780220 545.638306
-7.788937 96.409294 545.514282
-7.788010 97.038223 545.390320
-7.787089 97.667023 545.266296
-7.464988 98.619316 545.134460
-7.464126 99.247833 545.010559
-7.463269 99.876213 544.886658
-7.462417 100.504463 544.762756
-7.461570 101.132576 544.638916
-7.140167 101.770226 544.569031
-7.139375 102.398132 544.445251
-7.138589 103.025909 544.321411
-7.137807 103.653557 544.197632
-6.816224 104.604729 544.065918
-6.815498 105.232117 543.942200
-6.814777 105.859367 543.818481
-6.814061 106.486504 543.694824
-6.813350 107.113503 543.571167
-6.812643 107.740379 543.447510
-6.811941 108.367134 543.323914
-6.811243 108.993767 543.200317
-6.810550 109.620277 543.076782
-6.809862 110.246658 542.953247
-6.165532 114.649773 542.196289
-6.164964 115.275314 542.072876
-6.164399 115.900742 541.949524
-5.843798 116.849792 541.818054
-5.843285 117.474991 541.694702
-5.842777 118.100067 541.571411
-5.842272 118.725037 541.448120
-5.841771 119.349884 541.324829
-5.841275 119.974625 541.201599
-5.840782 120.599251 541.078369
-5.840293 121.223763 540.955139
-5.520312 121.859779 540.885376
-5.519871 122.484131 540.762207
-5.519434 123.108368 540.639038
-5.519001 123.732498 540.515930
-5.518571 124.356514 540.392761
-28.142433 -12.617836 563.489990
-27.807632 -11.955014 563.417480
-27.800823 -11.291455 563.287720
-27.794035 -10.628229 563.157959
-27.787270 -9.965333 563.028259
-27.452894 -9.303545 562.955872
-27.446249 -8.641248 562.826294
-27.439625 -7.979278 562.696777
-27.105574 -7.318236 562.624512
-27.099068 -6.656856 562.495056
-27.092585 -5.995798 562.365723
-27.086121 -5.335061 562.236389
-27.079678 -4.674643 562.107117
-26.064135 -1.048149 561.568237
-26.058052 -0.389599 561.439270
-26.051991 0.268642 561.310364
