# This PCD file was generated using the MATLAB® pcwrite function
# from Computer Vision Toolbox®.
# .PCD v.7 - Point Cloud Data file format
VERSION .7
FIELDS x y z
SIZE 4 4 4
TYPE F F F
COUNT 1 1 1
WIDTH 1507
HEIGHT 1
VIEWPOINT 0 0 0 1 0 0 0
POINTS 1507
DATA ascii
-101.362000 14.243001 447.628845
-100.830826 14.508413 447.671356
-100.310104 14.510153 447.762970
-99.789322 14.511897 447.854614
-99.258209 14.777373 447.897125
-98.737358 14.779153 447.988739
-98.216446 14.780937 448.080414
-97.695473 14.782726 448.172058
-97.164391 15.048299 448.214539
-96.643349 15.050124 448.306213
-96.122238 15.051954 448.397888
-95.591202 15.317595 448.440338
-95.070015 15.319461 448.532013
-94.548767 15.321334 448.623718
-94.027458 15.323211 448.715393
-93.506073 15.325093 448.807129
-92.975044 15.590870 448.849548
-92.453583 15.592790 448.941254
-91.932060 15.594716 449.032990
-91.410461 15.596648 449.124756
-90.888802 15.598585 449.216492
-90.357765 15.864502 449.258881
-89.836014 15.866478 449.350647
-89.314194 15.868460 449.442413
-88.792305 15.870448 449.534210
-88.009338 15.873440 449.671906
-87.478271 16.139521 449.714264
-86.956184 16.141558 449.806091
-86.434021 16.143600 449.897919
-85.911789 16.145651 449.989746
-85.389481 16.147705 450.081573
-84.867088 16.149767 450.173431
-84.344627 16.151834 450.265320
-83.822090 16.153910 450.357208
-83.299477 16.155989 450.449097
-82.776779 16.158075 450.540985
-82.254013 16.160170 450.632904
-81.469704 16.163321 450.770813
-80.938423 16.429825 450.813141
-80.415428 16.431969 450.905090
-79.892349 16.434122 450.997070
-79.369186 16.436281 451.089020
-78.845947 16.438446 451.181030
-78.322624 16.440619 451.273010
-77.799210 16.442799 451.365051
-77.275719 16.444984 451.457062
-76.752136 16.447178 451.549103
-76.228477 16.449375 451.641174
-75.704727 16.451584 451.733246
-75.180885 16.453796 451.825317
-74.649300 16.720732 451.867615
-74.125343 16.722992 451.959717
-73.601288 16.725258 452.051819
-73.077148 16.727531 452.143951
-72.552917 16.729813 452.236084
-72.028587 16.732100 452.328247
-71.504173 16.734394 452.420410
-70.979668 16.736696 452.512604
-70.455063 16.739008 452.604797
-69.930367 16.741323 452.697021
-69.405571 16.743649 452.789246
-68.618202 16.747150 452.927643
-68.093170 16.749493 453.019897
-67.568039 16.751842 453.112183
-67.042809 16.754202 453.204498
-66.517479 16.756567 453.296814
-65.992050 16.758940 453.389130
-65.466522 16.761320 453.481476
-64.940887 16.763708 453.573853
-64.415154 16.766106 453.666229
-63.889313 16.768509 453.758636
-63.363373 16.770920 453.851074
-62.574261 16.774551 453.989716
-62.048054 16.776983 454.082184
-61.521744 16.779421 454.174652
-60.995323 16.781868 454.267151
-60.468792 16.784323 454.359680
-59.942154 16.786783 454.452209
-59.415405 16.789253 454.544739
-58.882507 17.057417 454.587036
-58.355591 17.059938 454.679596
-57.828560 17.062469 454.772186
-57.301418 17.065008 454.864807
-56.516285 16.802982 455.054077
-55.988800 16.805504 455.146759
-55.461201 16.808035 455.239441
-54.933479 16.810572 455.332153
-54.405643 16.813120 455.424866
-53.877689 16.815674 455.517609
-53.349613 16.818235 455.610382
-52.821419 16.820807 455.703186
-52.293102 16.823385 455.795990
-51.764660 16.825974 455.888794
-51.236099 16.828569 455.981659
-50.443020 16.832479 456.120941
-49.914143 16.835094 456.213837
-49.385143 16.837721 456.306763
-48.856014 16.840353 456.399689
-48.326756 16.842995 456.492645
-47.797371 16.845646 456.585632
-47.267853 16.848305 456.678650
-46.738205 16.850971 456.771667
-46.208427 16.853647 456.864716
-45.678516 16.856331 456.957764
-45.148472 16.859024 457.050873
-42.235134 16.607033 457.614075
-41.704144 16.609739 457.707306
-41.173016 16.612455 457.800598
-40.641743 16.615181 457.893890
-40.110325 16.617914 457.987213
-39.578766 16.620655 458.080566
-38.781158 16.624784 458.220612
-38.249233 16.627548 458.314026
-37.717167 16.630322 458.407440
-37.184952 16.633102 458.500916
-36.652588 16.635893 458.594391
-36.123798 16.371197 458.738922
-35.591080 16.373962 458.832458
-35.058208 16.376734 458.926025
-34.525185 16.379517 459.019623
-33.992004 16.382305 459.113251
-33.191948 16.386507 459.253723
-32.658382 16.389318 459.347412
-32.124660 16.392139 459.441132
-31.590780 16.394970 459.534882
-31.056740 16.397806 459.628632
-30.525698 16.132645 459.773651
-29.991282 16.135456 459.867493
-29.456703 16.138275 459.961365
-28.921965 16.141104 460.055267
-28.387058 16.143940 460.149170
-25.712708 15.889782 460.670593
-25.176743 15.892624 460.764679
-24.640606 15.895475 460.858826
-24.104298 15.898335 460.952972
-23.567818 15.901204 461.047180
-23.031162 15.904081 461.141388
-22.494331 15.906967 461.235657
-20.078484 15.651039 461.711761
-19.273617 15.386221 461.905060
-18.735418 15.389071 461.999573
-18.197037 15.391929 462.094086
-17.658470 15.394796 462.188660
-17.119720 15.397672 462.283234
-14.154694 15.143967 462.855896
-13.614654 15.146848 462.950714
-13.075781 14.879908 463.097473
-12.535296 14.882755 463.192352
-11.994615 14.885610 463.287292
-11.453737 14.888474 463.382263
-10.913797 14.621258 463.529266
-10.372465 14.624087 463.624298
-9.830933 14.626924 463.719391
-9.289200 14.629769 463.814514
-8.747264 14.632623 463.909668
-8.205125 14.635484 464.004883
-7.662781 14.638354 464.100098
-7.120232 14.641232 464.195343
-6.306673 14.374978 464.390472
-5.763548 14.377824 464.485840
-4.948977 14.111334 464.681213
-4.405269 14.114146 464.776672
-3.861348 14.116966 464.872192
-3.317214 14.119794 464.967743
-2.500862 13.852980 465.163483
-1.956131 13.855774 465.259125
-1.411184 13.858575 465.354828
1.317007 13.601189 465.886383
1.863340 13.603981 465.982330
2.683562 13.336478 466.178864
3.230519 13.339234 466.274933
3.777703 13.341998 466.371033
4.598405 13.618060 466.462616
7.341639 12.815595 467.102142
7.890688 12.818300 467.198608
8.439974 12.821011 467.295074
8.989500 12.823730 467.391602
9.813170 13.100385 467.483612
12.847157 12.023959 468.227417
13.398814 12.026557 468.324341
13.950721 12.029162 468.421326
14.777440 12.306350 468.513763
17.548103 11.498938 469.159088
18.102037 11.501471 469.256409
18.656233 11.504010 469.353790
19.490147 11.233868 469.553284
20.047251 10.962279 469.704132
20.602484 10.964716 469.801727
21.157982 10.967159 469.899353
21.994143 10.696476 470.099335
22.550369 10.698871 470.197113
23.387785 10.427898 470.397369
23.944748 10.430245 470.495270
24.783432 10.158981 470.695801
25.341139 10.161277 470.793854
25.899118 10.163579 470.891937
26.460297 9.890841 471.043762
27.018892 9.893089 471.141968
27.860392 9.621205 471.343109
28.419750 9.623402 471.441467
29.262556 9.351217 471.642914
29.822683 9.353360 471.741425
30.386465 9.079828 471.893860
30.947226 9.081916 471.992462
31.792439 8.809150 472.194458
32.353981 8.811182 472.293243
33.200539 8.538107 472.495514
33.762875 8.540084 472.594421
34.329330 8.265738 472.747467
34.892315 8.267656 472.846527
35.459560 7.993055 472.999786
36.023205 7.994913 473.098969
-103.990891 20.019375 446.048370
-103.471672 20.021614 446.139618
-102.952393 20.023861 446.230896
-102.422768 20.288582 446.273285
-101.903419 20.290865 446.364563
-101.384026 20.293156 446.455841
-100.854439 20.557947 446.498199
-100.334976 20.560278 446.589478
-99.815445 20.562614 446.680786
-99.285912 20.827480 446.723114
-98.766312 20.829857 446.814423
-98.246658 20.832239 446.905731
-97.726936 20.834633 446.997070
-97.197433 21.099607 447.039368
-96.677635 21.102039 447.130707
-96.157784 21.104479 447.222046
-95.637863 21.106926 447.313385
-95.117874 21.109381 447.404755
-94.588379 21.374504 447.447021
-94.068314 21.377001 447.538391
-93.548187 21.379505 447.629761
-93.027992 21.382021 447.721130
-92.507736 21.384541 447.812531
-91.987404 21.387070 447.903931
-91.457886 21.652382 447.946198
-90.937477 21.654955 448.037598
-90.416992 21.657536 448.129028
-89.896439 21.660126 448.220459
-89.375816 21.662724 448.311890
-88.594757 21.666637 448.449066
-88.073952 21.669256 448.540558
-87.553085 21.671885 448.632019
-84.678551 21.949589 449.086029
-84.157249 21.952303 449.177551
-83.635872 21.955025 449.269104
-83.106155 22.220890 449.311279
-82.584671 22.223661 449.402832
-82.063118 22.226442 449.494415
-81.541473 22.229231 449.585999
-81.019760 22.232031 449.677582
-80.237030 22.236246 449.815002
-79.715111 22.239069 449.906647
-79.193115 22.241901 449.998291
-78.671028 22.244743 450.089935
-78.148865 22.247595 450.181610
-77.626610 22.250456 450.273285
-77.104279 22.253326 450.364960
-76.574257 22.519670 450.407104
-76.051804 22.522593 450.498810
-75.529266 22.525524 450.590515
-75.006638 22.528465 450.682251
-74.483917 22.531418 450.773987
-73.699677 22.535864 450.911652
-73.176743 22.538841 451.003418
-72.653709 22.541828 451.095215
-72.130592 22.544827 451.187012
-71.607384 22.547832 451.278839
-71.084076 22.550852 451.370667
-70.560677 22.553881 451.462524
-70.037186 22.556919 451.554382
-69.513603 22.559969 451.646271
-68.989922 22.563028 451.738159
-68.466141 22.566097 451.830048
-67.942268 22.569180 451.921997
-67.418297 22.572269 452.013916
-66.894226 22.575373 452.105865
-66.370056 22.578485 452.197845
-65.845787 22.581608 452.289825
-65.321411 22.584742 452.381836
-64.796944 22.587887 452.473846
-64.272369 22.591043 452.565887
-63.747688 22.594210 452.657928
-63.222908 22.597387 452.750000
-62.698021 22.600574 452.842072
-62.173031 22.603775 452.934174
-61.647934 22.606985 453.026276
-61.122726 22.610207 453.118408
-60.597416 22.613440 453.210571
-60.071995 22.616682 453.302734
-59.546463 22.619938 453.394897
-59.020821 22.623203 453.487122
-58.495068 22.626480 453.579315
-57.969204 22.629768 453.671570
-57.443226 22.633068 453.763824
-56.917137 22.636379 453.856079
-56.390930 22.639702 453.948364
-55.864613 22.643036 454.040680
-55.338177 22.646379 454.132996
-54.811623 22.649736 454.225342
-54.284950 22.653105 454.317719
-53.758160 22.656485 454.410095
-53.231251 22.659876 454.502472
-52.704220 22.663279 454.594910
-52.177071 22.666693 454.687347
-51.649796 22.670118 454.779785
-51.122398 22.673555 454.872284
-50.594879 22.677006 454.964752
-50.067238 22.680468 455.057281
-49.539467 22.683939 455.149811
-48.752415 22.423853 455.339081
-48.224274 22.427315 455.431671
-47.696007 22.430790 455.524292
-47.167606 22.434277 455.616943
-46.639076 22.437777 455.709595
-46.110416 22.441286 455.802277
-45.581623 22.444809 455.894989
-45.052696 22.448343 455.987732
-44.523636 22.451889 456.080475
-43.729794 22.457232 456.219635
-42.939915 22.196793 456.409454
-42.410255 22.200344 456.502319
-41.880459 22.203911 456.595184
-41.350521 22.207487 456.688080
-40.820442 22.211077 456.781006
-40.290222 22.214678 456.873962
-39.759861 22.218290 456.966919
-39.229359 22.221916 457.059906
-38.698708 22.225554 457.152924
-36.046856 21.977520 457.669159
-35.515266 21.981188 457.762329
-34.983528 21.984865 457.855530
-34.451633 21.988558 457.948761
-33.919590 21.992262 458.042023
-33.387390 21.995975 458.135284
-32.592060 21.734840 458.326202
-32.059418 21.738543 458.419556
-31.526619 21.742256 458.512939
-30.993662 21.745983 458.606323
-30.460545 21.749722 458.699768
-29.927267 21.753471 458.793213
-29.393829 21.757235 458.886688
-28.860229 21.761009 458.980194
-28.326466 21.764797 459.073730
-27.792538 21.768597 459.167297
-27.258444 21.772408 459.260864
-24.320362 21.526110 459.827362
-23.785116 21.529955 459.921143
-23.252028 21.266184 460.066254
-22.716379 21.270006 460.160095
-22.180557 21.273842 460.253998
-21.378639 21.011772 460.446259
-20.574095 21.017506 460.587219
-20.037506 21.021341 460.681244
-19.500740 21.025188 460.775299
-18.963793 21.029049 460.869385
-18.426661 21.032923 460.963501
-17.889347 21.036806 461.057648
-17.351849 21.040703 461.151825
-16.814165 21.044611 461.246002
-16.276295 21.048532 461.340240
-13.315962 20.801689 461.910736
-12.778081 20.536911 462.056915
-12.238669 20.540823 462.151428
-11.699062 20.544746 462.245941
-11.159258 20.548683 462.340515
-8.458095 20.299356 462.865753
-7.917034 20.303314 462.960541
-7.376504 20.037937 463.107269
-6.834978 20.041866 463.202148
-6.293245 20.045807 463.297058
-5.751305 20.049761 463.391998
-3.038747 19.799879 463.919342
-2.495483 19.803848 464.014496
-1.952186 19.537851 464.161865
-1.408435 19.541792 464.257111
-0.864466 19.545742 464.352417
-0.320279 19.549706 464.447754
2.404509 19.028700 465.029663
2.950143 19.032621 465.125244
3.496004 19.036554 465.220886
4.042093 19.040499 465.316589
4.588410 19.044455 465.412292
5.407737 19.321241 465.503510
8.146853 18.528055 466.140503
8.695036 18.531981 466.236572
9.243457 18.535919 466.332672
9.792117 18.539867 466.428802
10.615558 18.545813 466.573059
13.643874 17.752081 467.261261
14.194665 17.755939 467.357788
14.745706 17.759811 467.454346
15.572738 17.765638 467.599274
18.339485 16.967463 468.242126
18.892614 16.971231 468.339081
19.446003 16.975010 468.436096
20.278734 16.707783 468.634796
20.835058 16.438492 468.785095
21.389484 16.442181 468.882294
21.944176 16.445881 468.979523
22.499132 16.449591 469.076813
23.334562 16.181807 469.276093
23.890251 16.185476 469.373535
24.446211 16.189157 469.471008
25.005117 15.919236 469.621857
25.561680 15.922873 469.719452
26.399870 15.654517 469.919342
26.957180 15.658114 470.017059
27.514769 15.661721 470.114838
28.075651 15.391259 470.266174
28.633858 15.394819 470.364044
29.195486 15.124125 470.515533
29.754316 15.127638 470.613556
30.316696 14.856710 470.765228
30.876156 14.860177 470.863373
31.435900 14.863652 470.961548
32.279537 14.594143 471.162628
32.840065 14.597574 471.260956
33.685040 14.327776 471.462311
34.246353 14.331162 471.560791
35.092674 14.061072 471.762421
35.939854 13.790741 471.964294
36.502468 13.794026 472.063019
37.065380 13.797319 472.161774
-102.459259 26.048880 445.153748
-101.931175 26.313065 445.195953
-101.413002 26.315939 445.286926
-100.894768 26.318821 445.377869
-100.366730 26.583088 445.420074
-99.848419 26.586014 445.511047
-99.330055 26.588949 445.602020
-98.811630 26.591894 445.692993
-98.293144 26.594851 445.783997
-97.765121 26.859274 445.826141
-97.246559 26.862272 445.917145
-96.727936 26.865284 446.008179
-96.209244 26.868303 446.099182
-95.681236 27.132851 446.141296
-95.162468 27.135918 446.232330
-94.643639 27.138996 446.323364
-94.124741 27.142084 446.414398
-93.605782 27.145182 446.505463
-93.077766 27.409895 446.547546
-92.558723 27.413040 446.638611
-92.039612 27.416199 446.729675
-91.520432 27.419367 446.820770
-91.001183 27.422544 446.911835
-90.481873 27.425734 447.002960
-89.962486 27.428934 447.094055
-89.443024 27.432146 447.185181
-88.914932 27.697145 447.227234
-88.395386 27.700409 447.318359
-87.875763 27.703682 447.409485
-87.356079 27.706966 447.500641
-86.836311 27.710260 447.591797
-86.316475 27.713568 447.682953
-85.536583 27.718552 447.819733
-84.756516 27.723558 447.956512
-84.236382 27.726913 448.047729
-83.716171 27.730278 448.138947
-83.195885 27.733656 448.230194
-82.667564 27.999123 448.272186
-82.147171 28.002554 448.363434
-81.626701 28.005997 448.454681
-81.106148 28.009451 448.545929
-80.585510 28.012918 448.637207
-80.064796 28.016397 448.728516
-79.544006 28.019890 448.819794
-79.023132 28.023394 448.911102
-78.502167 28.026909 449.002441
-77.981125 28.030437 449.093781
-77.459999 28.033979 449.185120
-76.938789 28.037533 449.276489
-76.417496 28.041100 449.367859
-75.896111 28.044680 449.459259
-75.367416 28.310732 449.501221
-74.845909 28.314367 449.592590
-74.324318 28.318016 449.684021
-73.802635 28.321678 449.775452
-73.280861 28.325354 449.866882
-72.759003 28.329042 449.958313
-72.237053 28.332745 450.049774
-71.715012 28.336458 450.141266
-71.192871 28.340187 450.232758
-70.670647 28.343929 450.324249
-70.148323 28.347685 450.415771
-69.625908 28.351452 450.507324
-69.103394 28.355234 450.598846
-68.580788 28.359030 450.690430
-68.058090 28.362839 450.781982
-67.535286 28.366661 450.873596
-67.012390 28.370497 450.965179
-66.489388 28.374348 451.056824
-65.966293 28.378210 451.148438
-65.443100 28.382090 451.240082
-64.919800 28.385981 451.331757
-64.396400 28.389887 451.423431
-63.872894 28.393805 451.515137
-63.349289 28.397738 451.606842
-62.825581 28.401686 451.698578
-62.301765 28.405647 451.790314
-61.777843 28.409622 451.882080
-61.253819 28.413612 451.973846
-60.467575 28.419624 452.111542
-59.943279 28.423649 452.203339
-59.418873 28.427689 452.295197
-58.894356 28.431744 452.387024
-58.369728 28.435812 452.478882
-57.588100 28.178333 452.666687
-57.057671 28.446047 452.708649
-56.532646 28.450167 452.800568
-56.007511 28.454300 452.892517
-55.482258 28.458448 452.984467
-54.956890 28.462612 453.076447
-52.070236 28.221779 453.632782
-51.544041 28.226002 453.724884
-51.017723 28.230238 453.817017
-50.491283 28.234489 453.909180
-49.964714 28.238756 454.001343
-49.438023 28.243038 454.093536
-48.915905 27.983061 454.235962
-48.384258 28.251648 454.277954
-47.861786 27.991623 454.420471
-47.334534 27.995926 454.512756
-46.807148 28.000242 454.605072
-46.279636 28.004578 454.697388
-45.751991 28.008924 454.789734
-45.224216 28.013288 454.882080
-44.696304 28.017668 454.974487
-44.168259 28.022060 455.066895
-43.640079 28.026468 455.159302
-43.115913 27.766136 455.302185
-42.583313 28.035334 455.344238
-42.054722 28.039787 455.436707
-41.525993 28.044258 455.529236
-40.997124 28.048744 455.621765
-40.207424 27.790520 455.811127
-39.678150 27.795004 455.903717
-39.148735 27.799501 455.996368
-38.619171 27.804016 456.089020
-38.089466 27.808544 456.181671
-37.559616 27.813089 456.274384
-37.029617 27.817650 456.367096
-36.502991 27.556904 456.510498
-35.972645 27.561453 456.603271
-35.442150 27.566017 456.696075
-34.911507 27.570597 456.788910
-34.380707 27.575193 456.881744
-33.849758 27.579803 456.974640
-33.318653 27.584431 457.067535
-32.787395 27.589071 457.160461
-32.255981 27.593731 457.253418
-31.455540 27.866476 457.342072
-28.534410 27.360750 457.955688
-28.004374 27.099375 458.099792
-27.471415 27.104082 458.192993
-26.938290 27.108809 458.286224
-26.140821 26.849604 458.477173
-25.604750 27.120689 458.519440
-25.071037 27.125469 458.612793
-24.537157 27.130266 458.706146
-24.003105 27.135078 458.799530
-23.203951 26.875748 458.990784
-22.669415 26.880552 459.084259
-22.134705 26.885372 459.177734
-21.599819 26.890209 459.271271
-21.064758 26.895061 459.364838
-18.120474 26.654953 459.931213
-17.585892 26.392687 460.076294
-17.049370 26.397560 460.170105
-16.512663 26.402451 460.263947
-15.975768 26.407354 460.357819
-15.171544 26.147303 460.550079
-14.365348 26.154652 460.691040
-13.827645 26.159569 460.785065
-13.289751 26.164503 460.879089
-12.751665 26.169453 460.973175
-12.213384 26.174417 461.067261
-11.676037 25.911587 461.212952
-11.137313 25.916533 461.307159
-10.598392 25.921494 461.401367
-9.790583 25.660929 461.594360
-8.981301 25.668358 461.735870
-8.441529 25.673330 461.830231
-7.901554 25.678320 461.924622
-7.361375 25.683323 462.019043
-6.820993 25.688341 462.113525
-6.281003 25.424953 462.259766
-5.740154 25.429953 462.354340
-5.199098 25.434965 462.448914
-2.490885 25.191423 462.974243
-1.948505 25.196478 463.069061
-1.406025 24.932547 463.215881
-0.863160 24.937576 463.310760
-0.320076 24.942621 463.405701
0.223226 24.947683 463.500671
2.943376 24.703730 464.028198
3.488443 24.439238 464.175568
4.033417 24.444294 464.270844
4.578618 24.449366 464.366150
5.124049 24.454453 464.461487
5.670304 24.189690 464.609131
6.216250 24.194752 464.704559
6.762429 24.199827 464.800049
7.308841 24.204918 464.895538
8.129742 23.942411 465.091248
8.676798 23.947483 465.186890
9.225047 23.682234 465.334961
9.772634 23.687277 465.430695
10.320461 23.692333 465.526459
13.064576 23.447050 466.058472
13.890120 23.183756 466.255157
14.439892 23.188805 466.351288
14.989914 23.193871 466.447418
15.540186 23.198948 466.543640
16.090712 23.204041 466.639862
16.643206 22.937868 466.788879
17.196070 22.671537 466.937988
17.747471 22.676554 467.034393
18.299126 22.681583 467.130829
19.129072 22.417500 467.328430
19.681431 22.422503 467.425018
20.234051 22.427523 467.521637
20.786930 22.432554 467.618317
21.340075 22.437601 467.715027
24.117283 21.646093 468.358459
24.672201 21.651035 468.455505
25.227390 21.655993 468.552582
25.782852 21.660961 468.649719
26.341328 21.393270 468.800079
26.897396 21.398203 468.897339
27.734907 21.132742 469.096527
28.573221 20.867064 469.295929
29.130518 20.871922 469.393402
29.688093 20.876793 469.490936
30.249117 20.608395 469.641876
30.807316 20.613226 469.739532
31.648466 20.346998 469.939514
32.207436 20.351797 470.037292
32.766697 20.356609 470.135132
33.329742 20.087683 470.286530
33.889641 20.092455 470.384491
34.453453 19.823299 470.536072
35.013992 19.828030 470.634155
35.859131 19.560989 470.835022
36.420464 19.565681 470.933258
37.266956 19.298365 471.134399
37.829094 19.303020 471.232758
-101.458351 32.052456 444.170410
-100.941261 32.055897 444.261078
-100.414665 32.319687 444.303101
-99.897499 32.323177 444.393738
-99.380280 32.326679 444.484406
-98.862991 32.330193 444.575104
-98.336418 32.594112 444.617096
-97.819054 32.597675 444.707764
-97.301636 32.601250 444.798462
-96.784149 32.604839 444.889160
-96.266602 32.608440 444.979858
-95.740021 32.872532 445.021820
-95.222397 32.876186 445.112549
-94.704704 32.879848 445.203247
-94.186943 32.883526 445.293976
-93.669121 32.887215 445.384705
-93.151230 32.890919 445.475464
-92.624619 33.155235 445.517395
-92.106636 33.158989 445.608154
-91.588593 33.162758 445.698914
-91.070480 33.166542 445.789673
-90.552299 33.170338 445.880463
-90.034050 33.174149 445.971252
-89.515732 33.177971 446.062042
-88.997337 33.181805 446.152832
-88.478874 33.185658 446.243652
-87.952141 33.450325 446.285553
-87.433586 33.454231 446.376373
-86.914955 33.458153 446.467194
-86.396248 33.462086 446.558044
-85.877472 33.466034 446.648895
-85.358620 33.469994 446.739777
-84.580200 33.475964 446.876099
-83.801613 33.481968 447.012421
-83.282455 33.485989 447.103333
-82.763222 33.490021 447.194244
-82.243912 33.494068 447.285187
-81.724525 33.498135 447.376129
-81.197510 33.763351 447.417969
-80.678009 33.767475 447.508911
-80.158424 33.771610 447.599854
-79.638763 33.775764 447.690826
-79.119019 33.779934 447.781830
-78.599190 33.784115 447.872803
-78.079285 33.788315 447.963806
-77.559288 33.792526 448.054840
-77.039215 33.796757 448.145874
-76.519051 33.801003 448.236908
-75.998802 33.805260 448.327972
-75.478470 33.809536 448.419037
-74.958046 33.813828 448.510101
-74.437538 33.818134 448.601196
-73.916939 33.822456 448.692322
-73.396255 33.826794 448.783417
-72.875481 33.831146 448.874542
-72.100838 33.576023 449.060669
-71.573143 33.842102 449.102448
-71.052048 33.846512 449.193604
-70.530853 33.850941 449.284790
-70.009575 33.855381 449.376007
-69.488197 33.859840 449.467224
-68.966728 33.864315 449.558441
-68.445160 33.868805 449.649689
-67.923492 33.873314 449.740936
-67.401733 33.877838 449.832214
-66.879868 33.882378 449.923492
-66.103027 33.627155 450.110016
-65.574791 33.893803 450.151794
-65.052582 33.898403 450.243103
-64.530266 33.903019 450.334473
-64.007858 33.907650 450.425842
-63.485340 33.912300 450.517212
-62.962723 33.916965 450.608612
-62.439999 33.921650 450.700012
-61.917171 33.926350 450.791443
-61.394234 33.931068 450.882874
-60.871193 33.935802 450.974335
-60.348045 33.940556 451.065796
-59.830334 33.682842 451.207031
-59.301418 33.950111 451.248810
-58.777943 33.954918 451.340332
-58.254353 33.959740 451.431854
-57.730656 33.964577 451.523407
-57.206841 33.969433 451.614990
-56.682919 33.974308 451.706573
-56.158878 33.979198 451.798157
-55.634724 33.984112 451.889801
-55.110451 33.989037 451.981415
-54.586067 33.993980 452.073090
-51.704605 33.758453 452.627472
-51.179394 33.763477 452.719238
-50.654057 33.768517 452.811066
-50.128597 33.773579 452.902863
-49.603008 33.778656 452.994720
-49.077297 33.783752 453.086578
-48.292976 33.528091 453.274475
-47.766899 33.533195 453.366394
-47.240692 33.538315 453.458344
-46.714355 33.543457 453.550323
-46.187889 33.548615 453.642303
-45.661293 33.553791 453.734283
-45.134563 33.558983 453.826294
-44.607700 33.564198 453.918335
-44.080704 33.569427 454.010406
-43.553574 33.574677 454.102478
-43.026306 33.579948 454.194580
-42.502850 33.321411 454.336975
-41.975262 33.326679 454.429138
-41.447533 33.331963 454.521332
-40.919662 33.337261 454.613525
-40.391651 33.342583 454.705750
-39.863503 33.347923 454.797974
-39.335213 33.353279 454.890259
-38.806774 33.358658 454.982544
-38.278194 33.364052 455.074829
-37.749470 33.369469 455.167175
-37.220600 33.374901 455.259521
-34.577244 33.137859 455.772156
-34.047428 33.143360 455.864655
-33.520580 32.884266 456.007751
-32.990410 32.889763 456.100342
-32.460087 32.895279 456.192932
-31.929604 32.900818 456.285522
-31.136494 32.644295 456.475159
-30.602715 32.914742 456.517181
-30.074488 32.655392 456.660583
-29.543245 32.660973 456.753326
-29.011843 32.666569 456.846100
-28.480276 32.672180 456.938873
-27.948549 32.677818 457.031708
-27.416656 32.683472 457.124542
-26.884600 32.689140 457.217407
-26.352379 32.694836 457.310303
-25.556116 32.438030 457.500549
-25.023426 32.443726 457.593506
-24.490564 32.449436 457.686523
-23.957535 32.455170 457.779541
-23.424334 32.460918 457.872620
-22.890959 32.466690 457.965698
-22.359499 32.206783 458.109772
-21.825727 32.212543 458.202911
-21.291779 32.218327 458.296112
-20.757654 32.224125 458.389313
-19.958000 31.966908 458.580231
-19.423382 31.972708 458.673523
-18.888580 31.978527 458.766846
-18.353600 31.984365 458.860199
-17.818438 31.990225 458.953583
-17.283091 31.996101 459.046997
-16.481266 31.738642 459.238342
-15.945407 31.744518 459.331848
-15.409361 31.750414 459.425385
-14.606304 31.492764 459.616974
-14.069736 31.498657 459.710602
-13.532977 31.504572 459.804260
-12.996027 31.510504 459.897949
-12.458885 31.516455 459.991638
-11.921549 31.522427 460.085388
-11.116213 31.264521 460.277466
-10.578338 31.270489 460.371277
-10.040265 31.276476 460.465149
-9.233638 31.018372 460.657501
-8.425630 31.027355 460.798462
-7.886706 31.033367 460.892456
-7.347579 31.039398 460.986511
-6.808248 31.045448 461.080597
-6.268713 31.051519 461.174713
-5.729492 30.790106 461.320435
-5.189492 30.796162 461.414642
-4.649284 30.802237 461.508881
-1.674505 30.568043 462.079468
-0.862019 30.309198 462.272980
-0.320003 30.315317 462.367523
0.222231 30.321457 462.462097
0.764684 30.327614 462.556702
3.752927 29.824610 463.181641
4.296936 29.830778 463.276520
4.841172 29.836967 463.371460
5.385637 29.843174 463.466400
5.930331 29.849400 463.561401
8.932107 29.345516 464.188873
9.752661 29.085485 464.384033
10.299393 29.091688 464.479401
10.846365 29.097912 464.574799
13.860437 28.862593 465.152557
14.410496 28.598898 465.300659
14.959411 28.605141 465.396393
15.508575 28.611401 465.492188
16.057989 28.617680 465.587982
16.882584 28.627132 465.731781
19.917006 27.850122 466.417816
20.468632 27.856365 466.514038
21.020519 27.862623 466.610291
21.848843 27.872047 466.754761
24.898666 27.092815 467.443939
25.452852 27.099030 467.540619
26.287298 26.836754 467.738678
26.842220 26.842947 467.835480
27.677923 26.580433 468.033783
28.233591 26.586605 468.130737
28.789537 26.592796 468.227722
29.626986 26.330002 468.426392
30.465239 26.067001 468.625244
31.022421 26.073132 468.722473
31.861969 25.809883 468.921600
32.419918 25.815990 469.018951
32.978153 25.822113 469.116364
33.540100 25.555532 469.267120
34.098972 25.561623 469.364624
34.658131 25.567730 469.462219
35.221184 25.300884 469.613220
35.780987 25.306957 469.710907
36.344803 25.039894 469.862061
36.905251 25.045933 469.959900
37.465996 25.051987 470.057739
38.030941 24.784655 470.209167
38.592339 24.790672 470.307159
-100.219711 37.776382 443.283112
-99.694511 38.039806 443.324951
-99.178375 38.043880 443.415314
-98.662170 38.047970 443.505676
-98.136993 38.311497 443.547516
-97.620712 38.315643 443.637878
-97.104370 38.319801 443.728271
-96.587967 38.323975 443.818665
-96.071495 38.328163 443.909058
-95.554962 38.332367 443.999481
-95.038368 38.336586 444.089905
-94.513138 38.600384 444.131683
-93.996452 38.604660 444.222107
-93.479706 38.608948 444.312531
-92.962891 38.613255 444.402985
-92.446007 38.617573 444.493408
-91.929054 38.621910 444.583893
-91.403770 38.885948 444.625610
-90.886734 38.890347 444.716095
-90.369621 38.894756 444.806549
-89.852440 38.899181 444.897034
-89.335190 38.903625 444.987518
-88.817871 38.908081 445.078033
-88.300476 38.912556 445.168549
-87.783012 38.917046 445.259064
-87.265472 38.921555 445.349579
-86.747856 38.926079 445.440125
-86.222404 39.190544 445.481812
-85.712418 38.935173 445.621216
-85.194580 38.939747 445.711792
-84.676666 38.944332 445.802368
-83.907227 38.691147 445.987183
-81.041847 39.237160 446.387726
-80.523361 39.241913 446.478363
-80.004791 39.246689 446.569031
-79.486137 39.251476 446.659698
-78.967407 39.256287 446.750366
-78.448593 39.261112 446.841064
-77.929695 39.265957 446.931763
-77.417671 39.010380 447.071594
-76.891647 39.275700 447.113220
-76.372498 39.280598 447.203949
-75.853256 39.285515 447.294708
-75.333931 39.290447 447.385468
-74.814522 39.295399 447.476227
-74.295021 39.300369 447.567017
-73.775436 39.305359 447.657806
-72.995888 39.312878 447.794037
-72.476074 39.317917 447.884857
-71.956169 39.322968 447.975708
-71.182533 39.069767 448.161255
-70.656006 39.335686 448.202850
-70.135780 39.340809 448.293732
-69.615456 39.345947 448.384644
-69.095039 39.351105 448.475555
-68.574532 39.356281 448.566467
-68.053925 39.361477 448.657410
-67.527168 39.627705 448.699005
-67.012413 39.371929 448.839325
-66.491508 39.377186 448.930298
-65.970512 39.382458 449.021301
-65.194664 39.129204 449.207245
-64.667564 39.395729 449.248840
-64.146210 39.401070 449.339874
-63.624756 39.406433 449.430939
-63.103195 39.411816 449.522003
-62.581532 39.417217 449.613098
-62.059761 39.422638 449.704193
-61.537884 39.428082 449.795288
-61.015903 39.433540 449.886444
-60.493816 39.439022 449.977570
-59.971619 39.444527 450.068726
-59.193420 39.191216 450.255127
-58.665646 39.458370 450.296692
-58.143066 39.463943 450.387909
-57.620373 39.469536 450.479126
-57.097569 39.475151 450.570374
-56.574650 39.480785 450.661652
-56.056633 39.224621 450.802612
-55.533440 39.230263 450.893921
-55.010128 39.235924 450.985260
-54.486702 39.241604 451.076599
-53.963158 39.247303 451.167969
-53.182384 38.993832 451.354828
-52.653774 39.261650 451.396423
-52.129814 39.267422 451.487854
-51.605732 39.273220 451.579285
-51.081528 39.279034 451.670746
-50.557198 39.284874 451.762207
-50.037231 39.028442 451.903595
-49.512608 39.034283 451.995117
-48.987858 39.040146 452.086639
-48.462982 39.046032 452.178192
-47.937981 39.051937 452.269775
-47.417107 38.795338 452.411346
-46.887592 39.063812 452.453003
-46.362206 39.069778 452.544617
-45.836685 39.075771 452.636261
-45.311031 39.081783 452.727936
-44.785252 39.087814 452.819641
-44.263306 38.831112 452.961426
-43.737206 38.837151 453.053162
-43.210972 38.843208 453.144928
-42.684601 38.849285 453.236725
-42.158096 38.855389 453.328522
-41.635193 38.598511 453.470490
-41.104668 38.867657 453.512177
-40.577747 38.873821 453.604034
-40.050686 38.880013 453.695923
-39.523479 38.886223 453.787842
-38.735886 38.632351 453.975983
-38.208275 38.638577 454.067963
-37.680519 38.644821 454.159973
-37.152618 38.651089 454.251984
-36.624573 38.657379 454.344025
-33.985165 38.425510 454.854950
-33.456169 38.431889 454.947144
-32.927025 38.438290 455.039368
-32.135906 38.184093 455.228180
-31.606325 38.190510 455.320465
-31.076588 38.196945 455.412781
-30.546692 38.203403 455.505127
-30.016638 38.209881 455.597473
-29.486423 38.216385 455.689850
-28.956049 38.222908 455.782257
-28.425514 38.229458 455.874695
-27.631893 37.975063 456.063995
-27.100903 37.981621 456.156525
-26.569746 37.988201 456.249054
-26.038424 37.994804 456.341614
-25.506935 38.001431 456.434204
-22.849012 37.770184 456.948273
-22.316454 37.776897 457.041016
-21.785683 37.518791 457.184631
-21.252728 37.525501 457.277466
-20.719595 37.532238 457.370331
-20.186287 37.538998 457.463196
-17.251432 37.311275 458.025513
-16.716900 37.318134 458.118591
-16.183640 37.059582 458.262726
-15.648688 37.066437 458.355865
-15.113550 37.073311 458.449036
-14.578225 37.080212 458.542267
-11.899810 36.849174 459.059906
-11.363288 36.856159 459.153320
-10.827537 36.597160 459.297974
-10.290574 36.604137 459.391479
-9.753413 36.611141 459.484985
-9.216055 36.618164 459.578522
-6.526823 36.387169 460.098083
-5.719313 36.131260 460.290161
-5.180334 36.138351 460.383972
-4.641148 36.145462 460.477814
-4.101754 36.152599 460.571686
-1.401714 35.921570 461.093170
-0.590577 35.665237 461.285950
-0.049484 35.672436 461.380127
0.491826 35.679657 461.474335
1.033355 35.686897 461.568573
4.016548 35.191746 462.191071
4.559627 35.199024 462.285583
5.103450 34.938454 462.431976
5.647035 34.945724 462.526581
6.190850 34.953011 462.621216
6.734896 34.960323 462.715881
9.733226 34.464104 463.341278
10.278900 34.471447 463.436218
10.824812 34.478809 463.531219
11.370964 34.486195 463.626251
14.381948 33.989220 464.254028
15.205294 33.731194 464.449280
15.753564 33.738579 464.544678
16.302084 33.745987 464.640137
17.127008 33.487736 464.835724
17.676212 33.495136 464.931274
18.227453 33.232990 465.079285
18.777220 33.240376 465.174957
19.327242 33.247780 465.270660
20.154732 32.989105 465.466766
20.705456 32.996506 465.562622
21.256437 33.003925 465.658478
22.085567 32.745010 465.854950
22.637260 32.752422 465.950928
23.467598 32.493294 466.147644
24.020008 32.500698 466.243774
24.572687 32.508121 466.339966
25.125635 32.515568 466.436157
25.958113 32.256165 466.633301
26.511791 32.263599 466.729645
27.345510 32.003975 466.927063
27.899927 32.011398 467.023529
28.454620 32.018845 467.120056
29.012449 31.755259 467.269501
29.567753 31.762680 467.366150
30.404232 31.502594 467.564117
30.960291 31.510004 467.660889
31.798052 31.249689 467.859161
32.354874 31.257086 467.956055
32.911980 31.264502 468.053009
33.472691 31.000231 468.203094
34.030426 31.007622 468.300171
34.871033 30.746826 468.499023
35.429550 30.754202 468.596222
35.991936 30.489498 468.746704
36.551094 30.496847 468.844025
37.394104 30.235596 469.043396
37.954056 30.242928 469.140869
38.798412 29.981434 469.340515
39.359165 29.988749 469.438141
-99.249649 43.479424 442.352386
-98.725792 43.742561 442.394073
-98.210617 43.747242 442.484131
-97.695381 43.751938 442.574219
-97.180077 43.756649 442.664307
-96.656219 44.019947 442.705963
-96.140831 44.024719 442.796051
-95.625381 44.029510 442.886169
-95.109863 44.034317 442.976257
-94.594284 44.039139 443.066406
-94.078636 44.043980 443.156525
-93.562920 44.048840 443.246674
-93.038986 44.312431 443.288239
-92.523186 44.317352 443.378387
-92.007317 44.322292 443.468536
-91.491371 44.327248 443.558716
-90.975365 44.332222 443.648865
-90.459282 44.337212 443.739044
-89.943130 44.342220 443.829224
-89.426910 44.347252 443.919434
-88.910622 44.352299 444.009644
-88.394257 44.357361 444.099854
-87.870148 44.621403 444.141388
-87.353683 44.626534 444.231598
-86.837151 44.631683 444.321838
-86.320541 44.636852 444.412079
-85.803856 44.642036 444.502319
-85.287094 44.647243 444.592560
-84.770256 44.652470 444.682831
-84.253342 44.657715 444.773102
-83.736359 44.662975 444.863403
-83.226540 44.409035 445.002502
-82.702141 44.673561 445.044006
-82.184921 44.678883 445.134308
-81.667618 44.684223 445.224640
-81.150238 44.689587 445.314972
-80.632774 44.694969 445.405334
-80.115227 44.700371 445.495667
-79.597603 44.705791 445.586060
-79.079895 44.711231 445.676422
-78.562111 44.716694 445.766815
-78.044235 44.722176 445.857208
-77.526276 44.727676 445.947632
-76.755852 44.476364 446.132233
-74.410278 45.020828 446.441284
-73.638855 44.769604 446.626068
-73.113815 45.035069 446.667480
-72.595078 45.040798 446.757996
-72.076241 45.046551 446.848511
-71.557320 45.052326 446.939026
-71.038300 45.058125 447.029572
-70.253525 45.326782 447.116241
-67.408371 44.839165 447.712952
-66.888542 44.845100 447.803589
-66.368614 44.851063 447.894257
-65.848595 44.857044 447.984955
-65.328468 44.863049 448.075653
-64.808243 44.869076 448.166351
-62.205570 44.899551 448.620117
-61.684723 44.905712 448.710907
-61.163769 44.911900 448.801697
-60.642712 44.918110 448.892517
-60.121540 44.924339 448.983368
-59.600266 44.930595 449.074219
-59.078876 44.936871 449.165070
-56.475163 44.707691 449.669189
-55.953060 44.714073 449.760162
-55.430840 44.720482 449.851166
-54.908504 44.726910 449.942169
-54.386051 44.733360 450.033173
-53.863483 44.739838 450.124207
-53.340797 44.746338 450.215271
-52.561092 44.494896 450.401550
-52.038059 44.501419 450.492676
-51.514908 44.507965 450.583801
-50.991631 44.514534 450.674927
-50.468231 44.521130 450.766083
-49.944714 44.527744 450.857269
-49.421066 44.534386 450.948456
-48.897297 44.541054 451.039673
-48.373398 44.547745 451.130920
-47.849373 44.554459 451.222168
-47.325222 44.561195 451.313416
-44.706383 44.333405 451.819946
-44.181396 44.340252 451.911316
-43.656281 44.347122 452.002747
-43.131027 44.354019 452.094177
-42.605637 44.360939 452.185608
-42.080112 44.367882 452.277069
-41.295143 44.116199 452.464355
-40.769230 44.123165 452.555878
-40.243172 44.130154 452.647430
-39.716972 44.137173 452.739014
-39.190636 44.144211 452.830597
-38.664154 44.151276 452.922211
-38.140835 43.895935 453.063965
-37.614021 43.903008 453.155640
-37.087059 43.910107 453.247345
-36.559952 43.917233 453.339050
-36.032696 43.924381 453.430786
-33.132996 43.701279 453.985992
-32.604717 43.708549 454.077881
-32.076283 43.715847 454.169800
-31.547691 43.723167 454.261719
-31.018946 43.730515 454.353699
-30.490042 43.737885 454.445679
-27.845551 43.511780 454.956390
-27.052969 43.259556 455.145111
-26.522762 43.267029 455.237305
-25.992392 43.274529 455.329498
-25.461855 43.282055 455.421753
-24.931150 43.289608 455.514008
-22.277014 43.063847 456.026367
-21.747126 42.807514 456.169495
-21.215130 42.815151 456.261963
-20.682955 42.822819 456.354462
-20.150606 42.830509 456.446991
-19.618078 42.838226 456.539551
-16.954216 42.612740 457.053558
-16.155058 42.359917 457.243561
-15.621073 42.367729 457.336365
-15.086903 42.375568 457.429169
-14.552546 42.383438 457.522034
-13.751845 42.130455 457.712311
-13.216968 42.138336 457.805267
-12.682995 41.881275 457.949219
-12.147688 41.889160 458.042236
-11.612188 41.897072 458.135284
-11.076494 41.905006 458.228363
-10.540605 41.912971 458.321472
-10.004520 41.920959 458.414581
-9.468239 41.928970 458.507751
-8.931759 41.937012 458.600952
-6.247395 41.446331 459.169830
-5.709608 41.454422 459.263245
-4.902944 41.200787 459.454712
-4.364593 41.208893 459.548218
-3.826034 41.217022 459.641754
-3.287266 41.225182 459.735321
-2.748287 41.233360 459.828949
-2.209256 40.975445 459.973969
-1.669805 40.983627 460.067657
-1.130140 40.991833 460.161377
-0.590261 41.000069 460.255127
0.220024 40.746059 460.447327
0.760494 40.754303 460.541168
1.301182 40.762573 460.635071
1.842090 40.770866 460.728973
4.822017 40.283092 461.349518
5.636349 40.028561 461.542511
6.179201 40.036896 461.636780
6.722283 40.045258 461.731049
7.265596 40.053642 461.825378
7.809896 39.794716 461.971558
8.353723 39.803101 462.065979
8.897784 39.811508 462.160431
9.442080 39.819939 462.254944
9.986612 39.828396 462.349457
10.532391 39.569218 462.495941
11.077449 39.577671 462.590546
11.622746 39.586147 462.685211
12.168285 39.594650 462.779907
15.175981 39.105434 463.405640
15.724708 38.845650 463.552734
16.272240 38.854164 463.647797
16.820023 38.862709 463.742859
17.368055 38.871277 463.838013
20.390659 38.381027 464.466553
20.940458 38.389641 464.561981
21.490517 38.398273 464.657440
22.318218 38.142090 464.853119
25.355547 37.650719 465.484467
25.907885 37.659367 465.580353
26.739450 37.402576 465.776825
27.292519 37.411224 465.872833
28.125324 37.154228 466.069580
28.679131 37.162876 466.165710
29.233213 37.171543 466.261871
29.790428 36.909992 466.410828
30.345121 36.918648 466.507111
31.180676 36.661224 466.704437
31.736124 36.669876 466.800842
32.294956 36.407928 466.950165
32.851028 36.416561 467.046692
33.407379 36.425220 467.143280
34.245743 36.167358 467.341156
34.802872 36.176010 467.437866
35.642540 35.917934 467.636047
36.200443 35.926579 467.732910
36.762192 35.663967 467.882843
37.320740 35.672596 467.979828
37.879578 35.681248 468.076843
38.442436 35.418396 468.227051
39.001923 35.427029 468.324188
39.565544 35.163979 468.474548
-98.546394 49.161808 441.378540
-98.032204 49.167049 441.468353
-97.517944 49.172310 441.558167
-97.003624 49.177589 441.647980
-96.481033 49.440620 441.689423
-95.966629 49.445965 441.779236
-95.452156 49.451328 441.869080
-94.937614 49.456711 441.958893
-94.423012 49.462112 442.048737
-93.900375 49.725365 442.090149
-93.385681 49.730831 442.179993
-92.870918 49.736317 442.269867
-92.356087 49.741825 442.359711
-91.841187 49.747349 442.449585
-91.326218 49.752895 442.539459
-90.811180 49.758461 442.629333
-90.296074 49.764050 442.719208
-89.780891 49.769653 442.809113
-89.265640 49.775280 442.899017
-88.750313 49.780926 442.988953
-88.234917 49.786594 443.078888
-87.712044 50.050419 443.120239
-87.196541 50.056156 443.210175
-86.680969 50.061916 443.300110
-86.165321 50.067696 443.390045
-85.649605 50.073498 443.480011
-85.133804 50.079319 443.569977
-84.617928 50.085163 443.659943
-84.101974 50.091030 443.749939
-83.585953 50.096916 443.839935
-83.069839 50.102825 443.929932
-82.560608 49.850327 444.068665
-82.037392 50.114708 444.109985
-81.521049 50.120682 444.200012
-81.004623 50.126678 444.290070
-80.488121 50.132698 444.380096
-79.971535 50.138741 444.470184
-79.454865 50.144806 444.560242
-78.938110 50.150890 444.650330
-78.414696 50.415638 444.691620
-77.904358 50.163132 444.830536
-77.387360 50.169285 444.920654
-76.870270 50.175465 445.010773
-76.353096 50.181664 445.100922
-75.835838 50.187889 445.191071
-75.059784 50.197266 445.326294
-74.542305 50.203548 445.416473
-74.024734 50.209854 445.506653
-73.507080 50.216183 445.596863
-72.989334 50.222534 445.687073
-72.471497 50.228912 445.777283
-71.953568 50.235313 445.867523
-71.435539 50.241737 445.957764
-70.917427 50.248184 446.048004
-70.399223 50.254658 446.138275
-69.886780 50.001949 446.277618
-69.362526 50.267673 446.318848
-68.844032 50.274220 446.409149
-68.325447 50.280788 446.499481
-67.806763 50.287380 446.589813
-67.287979 50.293999 446.680145
-66.769096 50.300644 446.770477
-66.250122 50.307312 446.860870
-65.731041 50.314003 446.951233
-65.211861 50.320721 447.041626
-64.692581 50.327465 447.132019
-64.173203 50.334232 447.222443
-63.653713 50.341026 447.312866
-63.134129 50.347843 447.403320
-62.614433 50.354687 447.493774
-62.094639 50.361557 447.584259
-61.574734 50.368450 447.674744
-60.799759 50.119045 447.859802
-60.279545 50.125969 447.950317
-59.759220 50.132915 448.040863
-59.238789 50.139893 448.131439
-58.718246 50.146893 448.222015
-57.942070 49.897411 448.407288
-57.416405 50.164509 448.448517
-56.895473 50.171600 448.539154
-56.374428 50.178719 448.629791
-55.853268 50.185863 448.720459
-55.331989 50.193035 448.811127
-54.815178 49.939983 448.951294
-54.293629 49.947170 449.042023
-53.771957 49.954384 449.132751
-53.250172 49.961624 449.223511
-52.728264 49.968891 449.314270
-52.210602 49.715710 449.454620
-51.684090 49.983501 449.495850
-51.166100 49.730305 449.636261
-50.643661 49.737637 449.727112
-50.121105 49.745003 449.817963
-49.598423 49.752392 449.908844
-49.075615 49.759808 449.999756
-48.552681 49.767250 450.090668
-48.029621 49.774719 450.181580
-47.506435 49.782215 450.272522
-46.983120 49.789742 450.363495
-44.368294 49.566689 450.868378
-43.844147 49.574337 450.959473
-43.319866 49.582012 451.050598
-42.795448 49.589718 451.141724
-42.270893 49.597450 451.232849
-41.746204 49.605209 451.324005
-41.221375 49.612999 451.415192
-38.598358 49.390785 451.921387
-38.072639 49.398701 452.012695
-37.549919 49.144955 452.154022
-37.023865 49.152885 452.245392
-36.497665 49.160843 452.336792
-35.971321 49.168827 452.428223
-35.444828 49.176842 452.519653
-32.812851 48.955227 453.027283
-32.285404 48.963364 453.118866
-31.496586 48.713379 453.306488
-30.968706 48.721546 453.398132
-30.440672 48.729744 453.489777
-29.912477 48.737968 453.581482
-29.384127 48.746220 453.673187
-28.858034 48.491997 453.815247
-28.329315 48.500263 453.907013
-27.800438 48.508556 453.998810
-27.271395 48.516880 454.090637
-26.742189 48.525230 454.182465
-26.212820 48.533611 454.274353
-25.685438 48.279209 454.416656
-25.155691 48.287605 454.508575
-24.625776 48.296024 454.600525
-24.095694 48.304474 454.692505
-23.567417 48.049923 454.834991
-23.036949 48.058388 454.927063
-22.506310 48.066875 455.019135
-21.975498 48.075397 455.111206
-21.444513 48.083942 455.203339
-20.913355 48.092522 455.295502
-20.383726 47.837784 455.438232
-19.852169 47.846371 455.530457
-19.320435 47.854988 455.622711
-18.788523 47.863632 455.714966
-18.256430 47.872307 455.807251
-17.725639 47.617393 455.950256
-17.193138 47.626080 456.042633
-16.660458 47.634792 456.135010
-16.127592 47.643536 456.227417
-15.594542 47.652306 456.319885
-15.062561 47.397213 456.463104
-14.529093 47.405994 456.555634
-13.995438 47.414806 456.648163
-13.461594 47.423645 456.740753
-10.522900 47.208431 457.301331
-9.988579 46.952972 457.445038
-9.453195 46.961933 457.537872
-8.917614 46.970921 457.630707
-8.381834 46.979935 457.723602
-7.845855 46.988983 457.816498
-7.310265 46.733330 457.960480
-6.773837 46.742382 458.053467
-6.237206 46.751465 458.146484
-5.700371 46.760574 458.239532
-5.163736 46.504745 458.383759
-4.626444 46.513863 458.476868
-4.088945 46.523010 458.570038
-3.551238 46.532188 458.663208
-3.013322 46.541393 458.756439
-0.320533 46.056862 459.325623
0.218755 46.066135 459.419067
0.758372 45.809776 459.563904
1.298141 45.819057 459.657440
1.838128 45.828365 459.751007
2.378336 45.837700 459.844604
5.354494 45.357212 460.463043
5.896253 45.366631 460.556915
6.438241 45.376076 460.650787
6.980457 45.385548 460.744720
7.522903 45.395054 460.838684
8.065581 45.404583 460.932678
11.057582 44.656933 461.605560
11.601936 44.666485 461.699860
12.146530 44.676064 461.794159
12.691365 44.685673 461.888550
15.695213 44.204124 462.512085
16.243242 43.946228 462.658691
16.790068 43.955879 462.753418
17.337143 43.965557 462.848145
17.884468 43.975262 462.942932
18.433752 43.717148 463.089813
18.981636 43.726849 463.184692
19.529776 43.736580 463.279633
20.078169 43.746342 463.374603
20.628727 43.488003 463.521729
21.177687 43.497757 463.616791
21.726908 43.507542 463.711914
22.276386 43.517357 463.807037
25.034687 42.760761 464.440369
25.585907 42.770561 464.535828
26.137396 42.780388 464.631317
26.967638 42.526184 464.827087
27.519855 42.536018 464.922699
28.074953 42.276718 465.070831
28.627768 42.286549 465.166565
29.460249 42.031979 465.362762
30.013805 42.041813 465.458649
30.567638 42.051674 465.554535
31.401842 41.796894 465.751099
31.956429 41.806763 465.847137
32.511295 41.816654 465.943207
33.069534 41.556717 466.092041
33.625027 41.566601 466.188232
34.183994 41.306484 466.337189
34.740108 41.316360 466.433502
35.578152 41.060986 466.630859
36.135040 41.070866 466.727295
36.974388 40.815289 466.924896
37.532059 40.825169 467.021484
38.372726 40.569389 467.219391
38.931187 40.579269 467.316101
39.493664 40.318352 467.465851
40.052773 40.328217 467.562683
-97.859688 54.569763 440.454834
-97.346397 54.575596 440.544342
-96.825050 54.838364 440.585632
-96.311668 54.844265 440.675171
-95.798225 54.850189 440.764709
-95.284706 54.856129 440.854248
-94.771126 54.862095 440.943787
-94.257477 54.868080 441.033356
-93.743759 54.874084 441.122925
-93.222313 55.137188 441.164154
-92.708504 55.143265 441.253723
-92.194626 55.149361 441.343292
-91.680672 55.155483 441.432892
-91.166649 55.161625 441.522461
-90.652557 55.167789 441.612061
-90.138397 55.173977 441.701691
-89.624161 55.180183 441.791290
-89.109856 55.186417 441.880920
