# This PCD file was generated using the MATLAB® pcwrite function
# from Computer Vision Toolbox®.
# .PCD v.7 - Point Cloud Data file format
VERSION .7
FIELDS x y z
SIZE 4 4 4
TYPE F F F
COUNT 1 1 1
WIDTH 1508
HEIGHT 1
VIEWPOINT 0 0 0 1 0 0 0
POINTS 1508
DATA ascii
-36.544163 45.229622 453.088226
-36.017139 45.236980 453.179901
-35.493019 44.981884 453.321747
-34.965652 44.989250 453.413452
-34.438133 44.996647 453.505188
-33.910465 45.004066 453.596954
-33.382645 45.011513 453.688721
-32.857502 44.756248 453.830780
-32.329330 44.763702 453.922638
-31.801003 44.771187 454.014496
-31.272520 44.778690 454.106354
-30.743879 44.786224 454.198273
-29.953207 44.534561 454.386536
-29.424126 44.542114 454.478516
-28.894884 44.549698 454.570526
-28.365480 44.557304 454.662537
-25.453041 44.336178 455.219604
-24.659328 44.084248 455.408478
-24.128511 44.091976 455.500732
-23.597523 44.099728 455.592987
-23.066364 44.107506 455.685303
-22.535034 44.115311 455.777618
-22.005430 43.859337 455.920624
-21.473707 43.867149 456.013000
-20.941811 43.874985 456.105438
-20.409737 43.882851 456.197876
-19.612986 43.630638 456.387329
-19.080421 43.638523 456.479858
-18.547678 43.646431 456.572418
-18.014755 43.654366 456.665009
-17.216511 43.402012 456.854736
-16.683086 43.409966 456.947388
-16.149475 43.417946 457.040100
-15.615681 43.425953 457.132813
-15.081700 43.433987 457.225586
-14.548782 43.177456 457.369263
-14.014379 43.185493 457.462097
-13.479788 43.193558 457.554932
-12.945006 43.201645 457.647827
-12.143513 42.948982 457.838196
-11.608203 42.957088 457.931152
-11.072701 42.965221 458.024170
-10.537901 42.708340 458.168243
-10.001960 42.716476 458.261322
-9.465822 42.724640 458.354431
-8.929486 42.732830 458.447571
-8.393659 42.475765 458.591858
-7.856876 42.483955 458.685089
-7.319893 42.492172 458.778320
-6.782706 42.500416 458.871613
-6.245835 42.243160 459.016144
-5.708193 42.251408 459.109497
-5.170346 42.259678 459.202881
-4.632293 42.267979 459.296295
-3.825125 42.014675 459.487793
-3.286502 42.022987 459.581299
-2.747669 42.031326 459.674866
-2.208625 42.039688 459.768433
-1.669369 42.048080 459.862061
-0.860119 41.794586 460.053955
-0.320266 41.536770 460.199097
0.219840 41.545143 460.292877
0.760162 41.553547 460.386688
1.300703 41.561977 460.480499
1.841673 41.303955 460.625916
2.382703 41.312382 460.719818
2.923954 41.320835 460.813782
3.465429 41.329315 460.907776
6.448824 40.842411 461.528717
6.991871 40.850952 461.622986
7.535150 40.859516 461.717285
8.078661 40.868111 461.811615
8.622405 40.876724 461.905975
11.620529 40.121655 462.581360
12.165967 40.130272 462.676025
12.711646 40.138912 462.770721
13.257568 40.147579 462.865448
15.993885 39.654877 463.443909
16.816828 39.399574 463.638580
17.364759 39.408260 463.733643
17.912943 39.416969 463.828796
18.461382 39.425705 463.923950
21.211428 38.931950 464.505035
22.038744 38.676044 464.700592
22.589273 38.684788 464.796112
23.417788 38.428692 464.991943
23.969030 38.437439 465.087585
24.798752 38.181145 465.283661
25.350716 38.189896 465.379425
25.902948 38.198666 465.475281
26.457970 37.937775 465.623688
27.010796 37.946533 465.719635
27.686481 37.849453 467.895508
28.242331 37.858253 467.992188
28.673651 37.702976 466.060364
29.357664 37.604671 468.238678
29.914398 37.613483 468.335541
30.752974 37.355286 468.533936
31.310465 37.364094 468.630920
32.150318 37.105682 468.829559
32.708572 37.114491 468.926697
33.682472 37.001701 470.981873
34.243610 37.010426 471.078125
35.089249 36.750420 471.276245
35.651161 36.759140 471.372620
36.213364 36.767887 471.469025
-102.622780 52.388027 446.208893
-102.102379 52.393379 446.298584
-101.573326 52.659260 446.339203
-101.052849 52.664673 446.428925
-100.532310 52.670109 446.518616
-100.011703 52.675564 446.608307
-99.070282 52.458241 444.808899
-98.551773 52.463722 444.898346
-98.033203 52.469219 444.987793
-97.514572 52.474739 445.077240
-96.995872 52.480274 445.166687
-96.477112 52.485832 445.256134
-95.509636 52.508831 443.251923
-94.993431 52.514572 443.342194
-94.477158 52.520336 443.432465
-93.960815 52.526119 443.522736
-93.444405 52.531925 443.613007
-92.927925 52.537750 443.703308
-92.411377 52.543594 443.793610
-91.894760 52.549461 443.883942
-91.378067 52.555351 443.974243
-90.861305 52.561256 444.064575
-90.344467 52.567188 444.154907
-89.448189 52.351105 442.369049
-88.933350 52.357029 442.458832
-88.418442 52.362972 442.548615
-87.903465 52.368942 442.638397
-87.388405 52.374931 442.728210
-86.873276 52.380943 442.818024
-86.358070 52.386974 442.907837
-85.842796 52.393032 442.997681
-85.334534 52.141178 443.136108
-84.812004 52.405209 443.177368
-84.296501 52.411331 443.267212
-83.780914 52.417477 443.357086
-83.265251 52.423641 443.446960
-82.749504 52.429832 443.536865
-82.233688 52.436047 443.626740
-81.717781 52.442284 443.716644
-81.201805 52.448540 443.806580
-80.685738 52.454823 443.896484
-80.169594 52.461128 443.986420
-79.401810 52.212357 444.170105
-78.878876 52.476994 444.211304
-78.362442 52.483383 444.301270
-77.845924 52.489796 444.391266
-77.329323 52.496231 444.481262
-76.812637 52.502689 444.571259
-76.043739 52.253944 444.755096
-75.526787 52.260433 444.845154
-75.009750 52.266945 444.935211
-74.492630 52.273483 445.025269
-73.975418 52.280045 445.115326
-73.205490 52.031239 445.299377
-72.681992 52.296555 445.340576
-72.164467 52.303200 445.430695
-71.646843 52.309872 445.520813
-71.129128 52.316570 445.610931
-70.611328 52.323292 445.701080
-70.093422 52.330036 445.791260
-69.575432 52.336811 445.881439
-69.063049 52.084656 446.020630
-68.544823 52.091442 446.110840
-68.026489 52.098259 446.201080
-67.254387 51.849422 446.385498
-66.730247 52.115410 446.426666
-66.211578 52.122311 446.516937
-65.692810 52.129242 446.607208
-65.173943 52.136196 446.697510
-64.654968 52.143181 446.787811
-64.135895 52.150188 446.878143
-63.362324 51.901386 447.062836
-62.842949 51.908424 447.153198
-62.323467 51.915489 447.243561
-61.803883 51.922581 447.333954
-61.284191 51.929699 447.424347
-60.764393 51.936844 447.514771
-60.244488 51.944012 447.605194
-59.724472 51.951210 447.695648
-59.204346 51.958435 447.786102
-58.428783 51.709587 447.971161
-57.908340 51.716843 448.061676
-57.387783 51.724121 448.152191
-56.867115 51.731430 448.242737
-56.346333 51.738766 448.333313
-55.569542 51.489853 448.518585
-55.043877 51.757225 448.559753
-54.527199 51.504612 448.699799
-54.005852 51.512035 448.790436
-53.484390 51.519482 448.881104
-52.962807 51.526958 448.971771
-52.441105 51.534462 449.062469
-51.919281 51.541992 449.153168
-51.397339 51.549549 449.243866
-50.875271 51.557137 449.334595
-50.353085 51.564751 449.425354
-49.565475 51.836617 449.511902
-46.701981 51.097496 450.160461
-46.178692 51.105255 450.251373
-45.655270 51.113041 450.342285
-45.131721 51.120857 450.433258
-44.608040 51.128704 450.524200
-41.991089 50.907272 451.029175
-41.466549 50.915249 451.120270
-40.682854 50.666046 451.306824
-40.157925 50.674053 451.397980
-39.632854 50.682087 451.489166
-39.107643 50.690151 451.580353
-36.482456 50.469315 452.086639
-35.956329 50.477505 452.177979
-35.169788 50.228127 452.365082
-34.643250 50.236351 452.456482
-34.116558 50.244602 452.547882
-33.589718 50.252884 452.639343
-33.062725 50.261196 452.730804
-32.538280 50.007565 452.872437
-32.010937 50.015888 452.963959
-31.483438 50.024242 453.055481
-30.955784 50.032627 453.147064
-30.427971 50.041039 453.238647
-29.638420 49.791466 453.426300
-29.110168 49.799908 453.517975
-28.581757 49.808376 453.609650
-28.053183 49.816879 453.701355
-25.409973 49.597179 454.210602
-24.617550 49.347393 454.398834
-24.087648 49.356026 454.490753
-23.557575 49.364685 454.582672
-23.027334 49.373371 454.674652
-22.496922 49.382092 454.766632
-20.109583 49.158520 455.231445
-19.313992 48.908501 455.420258
-18.782261 48.917332 455.512451
-18.250351 48.926193 455.604675
-17.718260 48.935085 455.696930
-16.921186 48.684948 455.886047
-16.389954 48.430248 456.029083
-15.857134 48.439148 456.121460
-15.324128 48.448078 456.213867
-14.790937 48.457039 456.306305
-14.257559 48.466026 456.398743
-13.723993 48.475044 456.491241
-13.190238 48.484093 456.583771
-12.656293 48.493168 456.676300
-12.123152 48.238232 456.819702
-11.588778 48.247322 456.912323
-11.055117 47.992256 457.055878
-10.520309 48.001354 457.148560
-9.985307 48.010483 457.241272
-9.450108 48.019642 457.334015
-8.647640 47.768990 457.524170
-8.111899 47.778168 457.617035
-7.575959 47.787380 457.709900
-7.039818 47.796619 457.802795
-6.503475 47.805889 457.895721
-5.966929 47.815189 457.988678
-3.550451 47.327435 458.509674
-2.743901 47.076366 458.700653
-2.205763 47.085720 458.793884
-1.667414 47.095100 458.887146
1.027680 46.876926 459.405243
1.567553 46.620811 459.550079
2.107508 46.630295 459.643616
2.647684 46.639805 459.737183
3.188080 46.649345 459.830780
3.999491 46.397812 460.022675
4.540939 46.141376 460.167847
5.082215 46.150913 460.261597
5.623716 46.160477 460.355377
6.165445 46.170071 460.449188
6.979130 45.918236 460.641571
7.521480 45.927849 460.735474
8.064061 45.937492 460.829437
8.606875 45.947163 460.923431
11.326568 45.462379 461.497437
12.144275 45.210056 461.690582
12.689012 45.219780 461.784912
13.233991 45.229530 461.879272
13.779213 45.239307 461.973663
14.324680 45.249119 462.068115
17.333941 44.500893 462.744141
17.881168 44.510715 462.838898
18.428650 44.520565 462.933655
18.976383 44.530445 463.028503
19.524372 44.540352 463.123352
22.274330 43.785660 463.754852
22.824020 43.795563 463.850006
23.753996 43.731190 466.061279
24.306799 43.741165 466.157196
24.859871 43.751167 466.253143
25.415564 43.491360 466.401794
25.969225 43.501358 466.497864
26.802708 43.246368 466.694733
27.357100 43.256374 466.790924
28.191816 43.001202 466.988068
28.746946 43.011215 467.084381
29.302353 43.021259 467.180756
29.979248 42.930466 469.183563
30.416826 42.770901 467.426483
31.098698 42.678699 469.427887
31.657436 42.688644 469.523468
32.219475 42.426750 469.672455
32.778831 42.436687 469.768127
33.338467 42.446648 469.863892
34.043674 42.361366 471.983215
34.461830 42.194496 470.108948
35.454041 42.112934 472.277344
36.017414 42.122925 472.373627
36.584522 41.859322 472.523651
-102.358765 58.102379 447.169006
-101.837044 58.108322 447.258728
-100.876640 58.127182 445.399292
-100.357071 58.133183 445.488708
-99.837440 58.139198 445.578125
-99.317741 58.145241 445.667572
-98.797981 58.151302 445.757019
-98.278160 58.157387 445.846466
-97.758270 58.163490 445.935913
-97.238319 58.169617 446.025391
-96.718300 58.175766 446.114868
-96.198219 58.181938 446.204346
-95.265594 58.200886 444.357147
-94.747643 58.207111 444.446320
-94.229622 58.213364 444.535522
-93.283195 57.953526 442.592438
-92.767662 57.959949 442.682465
-92.252052 57.966396 442.772461
-91.736382 57.972870 442.862488
-91.220627 57.979362 442.952545
-90.704803 57.985878 443.042572
-90.188911 57.992416 443.132629
-89.672943 57.998981 443.222687
-89.156906 58.005569 443.312775
-88.640785 58.012180 443.402832
-88.124596 58.018814 443.492920
-87.608330 58.025475 443.583038
-86.724236 57.787109 441.799683
-86.209961 57.793762 441.889221
-85.695610 57.800442 441.978760
-85.291054 57.797470 444.037323
-84.409393 57.817242 442.202667
-83.894775 57.824005 442.292267
-83.380074 57.830791 442.381836
-82.865295 57.837605 442.471436
-82.350433 57.844440 442.561035
-81.835495 57.851303 442.650665
-81.320473 57.858192 442.740265
-80.554253 57.611134 442.923340
-80.038986 57.618053 443.013000
-79.523636 57.625000 443.102661
-79.008202 57.631973 443.192352
-78.492683 57.638969 443.282043
-77.977081 57.645996 443.371735
-77.461395 57.653046 443.461456
-76.945625 57.660122 443.551178
-76.429764 57.667225 443.640900
-75.913818 57.674351 443.730652
-75.397789 57.681507 443.820404
-74.881668 57.688690 443.910156
-74.365456 57.695896 443.999939
-73.849159 57.703133 444.089722
-73.332771 57.710396 444.179504
-72.563820 57.463371 444.363037
-71.788795 57.474327 444.497803
-71.271996 57.481667 444.587646
-70.755104 57.489033 444.677490
-70.238121 57.496426 444.767365
-69.721039 57.503845 444.857269
-69.203865 57.511292 444.947144
-68.686592 57.518768 445.037079
-68.169220 57.526272 445.126984
-67.651756 57.533802 445.216919
-67.134193 57.541363 445.306854
-64.550026 57.321064 445.805786
-64.031815 57.328758 445.895844
-63.513504 57.336483 445.985870
-62.995087 57.344234 446.075928
-62.476566 57.352016 446.166016
-61.957939 57.359825 446.256073
-61.439205 57.367664 446.346191
-58.848618 57.148357 446.846069
-58.329193 57.156334 446.936249
-57.809654 57.164345 447.026459
-57.290005 57.172382 447.116669
-56.770241 57.180447 447.206909
-56.250362 57.188545 447.297150
-55.730370 57.196671 447.387421
-54.954552 56.949673 447.572174
-54.429886 57.217121 447.613159
-53.909489 57.225353 447.703461
-53.388973 57.233616 447.793793
-52.868340 57.241905 447.884125
-52.347584 57.250229 447.974487
-51.570332 57.003281 448.159485
-51.045170 57.271172 448.200470
-50.528011 57.020035 448.340302
-50.006664 57.028458 448.430756
-49.485195 57.036911 448.521210
-48.963600 57.045395 448.611694
-48.441879 57.053909 448.702179
-47.920033 57.062454 448.792694
-47.398060 57.071033 448.883209
-46.875957 57.079639 448.973755
-46.353725 57.088280 449.064331
-45.835011 56.837002 449.204498
-45.312473 56.845665 449.295105
-44.789806 56.854359 449.385712
-44.267010 56.863083 449.476349
-43.744076 56.871838 449.567017
-43.224449 56.620449 449.707367
-42.701206 56.629230 449.798065
-42.177826 56.638039 449.888794
-41.654308 56.646881 449.979553
-41.130653 56.655754 450.070313
-40.606857 56.664661 450.161102
-40.086117 56.413143 450.301666
-39.562000 56.422073 450.392517
-39.037743 56.431034 450.483368
-38.513344 56.440025 450.574219
-37.729481 56.192902 450.760406
-37.204678 56.201931 450.851349
-36.679729 56.210991 450.942322
-36.154636 56.220085 451.033295
-35.629395 56.229214 451.124298
-35.104004 56.238369 451.215302
-34.581223 55.986603 451.356262
-34.055492 55.995785 451.447357
-33.529610 56.004997 451.538452
-33.003574 56.014240 451.629547
-30.375940 55.538246 452.185577
-29.848888 55.547600 452.276855
-29.321680 55.556984 452.368164
-28.532846 55.309563 452.555267
-28.005196 55.318985 452.646637
-27.477381 55.328442 452.738037
-26.683226 55.604397 452.824951
-23.781870 54.871513 453.478973
-23.254501 54.619026 453.620880
-22.725060 54.628639 453.712524
-21.932327 54.380859 453.900421
-21.402411 54.390507 453.992126
-20.872320 54.400188 454.083862
-20.342054 54.409901 454.175659
-19.811613 54.419647 454.267426
-19.017138 54.171776 454.455658
-18.486210 54.181557 454.547516
-17.955101 54.191372 454.639404
-17.423813 54.201218 454.731354
-16.627863 53.953251 454.919830
-13.701824 53.744904 455.476837
-13.170010 53.491734 455.619690
-12.636921 53.501732 455.711884
-12.103641 53.511765 455.804138
-11.570170 53.521828 455.896393
-10.768758 53.800385 455.984100
-7.831622 53.065731 456.644775
-7.296492 53.075958 456.737305
-6.761161 53.086220 456.829865
-6.225629 53.096512 456.922455
-5.689893 53.106834 457.015076
-3.008733 52.366123 457.631714
-2.471623 52.376492 457.724548
-1.934302 52.386894 457.817444
-1.396769 52.397327 457.910370
1.563856 51.925678 458.524353
2.102880 51.936218 458.617523
2.642400 51.681816 458.761963
3.181910 51.692371 458.855194
3.721641 51.702961 458.948456
4.261595 51.713581 459.041779
4.801773 51.724236 459.135101
7.778948 50.986706 459.803406
8.320747 50.997410 459.897034
8.862777 51.008144 459.990662
9.405040 51.018909 460.084351
10.219803 50.769226 460.276489
10.763676 50.514030 460.421875
11.306858 50.524799 460.515717
11.850278 50.535599 460.609589
12.666999 50.285641 460.802124
13.211066 50.296463 460.896118
13.755375 50.307323 460.990143
14.573604 50.057209 461.182983
15.118571 50.068089 461.277130
15.937912 49.817825 461.470184
16.483543 49.828732 461.564423
17.029423 49.839668 461.658722
17.653341 49.798775 463.807281
18.202148 49.809788 463.902283
18.670238 49.605698 461.993713
19.577034 49.569206 464.192200
20.128590 49.311924 464.339630
20.678642 49.322964 464.434845
21.228956 49.334034 464.530121
21.779530 49.345139 464.625427
22.330362 49.356274 464.720795
22.883514 49.098751 464.868530
23.434923 49.109890 464.963989
24.264711 48.857777 465.159637
24.816833 48.868935 465.255219
25.749868 48.810085 467.302979
26.304832 48.821163 467.397705
26.753778 48.639042 465.642548
27.418047 48.573067 467.640198
27.973867 48.584179 467.735046
28.532547 48.324814 467.882935
29.088963 48.335922 467.977905
29.645655 48.347069 468.072906
30.205360 48.087505 468.221008
30.762651 48.098652 468.316132
31.454464 48.039604 470.429535
32.014694 48.050785 470.525055
32.858559 47.795376 470.721771
33.419544 47.806568 470.817413
34.264679 47.550980 471.014374
34.826427 47.562187 471.110138
35.540817 47.500118 473.245056
36.105553 47.511364 473.341248
36.956577 47.254322 473.539337
37.522095 47.265579 473.635651
-102.085129 63.841034 448.072571
-101.562180 63.847618 448.162537
-100.615219 63.851479 446.358002
-100.094307 63.858089 446.447449
-99.573326 63.864723 446.536926
-98.631355 63.599957 444.728394
-98.112473 63.606621 444.817566
-97.593529 63.613312 444.906769
-97.074524 63.620022 444.995941
-96.555450 63.626759 445.085144
-96.036301 63.633518 445.174347
-95.517097 63.640301 445.263550
-94.588348 63.635937 443.419312
-94.071266 63.642780 443.508209
-93.554108 63.649651 443.597137
-93.036888 63.656544 443.686096
-92.519592 63.663460 443.775024
-92.002228 63.670403 443.863983
-91.484795 63.677368 443.952942
-90.553635 63.394768 442.022675
-90.038651 63.401928 442.112457
-89.523598 63.409111 442.202240
-89.008476 63.416321 442.292023
-88.493271 63.423557 442.381805
-87.977997 63.430817 442.471619
-87.462639 63.438107 442.561432
-86.947212 63.445419 442.651245
-86.431702 63.452759 442.741089
-85.916115 63.460125 442.830933
-85.400452 63.467518 442.920776
-84.633400 63.221085 443.104248
-83.755836 63.218075 441.274475
-83.242035 63.225502 441.363770
-82.728149 63.232956 441.453094
-82.214195 63.240437 441.542419
-81.700150 63.247948 441.631744
-81.186028 63.255482 441.721069
-80.420921 63.010117 441.903625
-79.906548 63.017689 441.992981
-79.392097 63.025291 442.082367
-78.877556 63.032921 442.171783
-78.111641 62.787521 442.354462
-77.590836 63.052116 442.395294
-77.076004 63.059841 442.484741
-76.561081 63.067600 442.574158
-76.046066 63.075386 442.663605
-75.530968 63.083199 442.753082
-75.015778 63.091042 442.842560
-74.500504 63.098911 442.932037
-73.985138 63.106812 443.021515
-73.469681 63.114742 443.111023
-72.954132 63.122700 443.200531
-72.438492 63.130688 443.290039
-71.922760 63.138706 443.379578
-71.412445 62.889439 443.517853
-70.896484 62.897480 443.607422
-70.380432 62.905556 443.697021
-69.864288 62.913658 443.786591
-69.348045 62.921791 443.876190
-68.831703 62.929955 443.965820
-68.062256 62.684692 444.149078
-67.545631 62.692898 444.238739
-67.028908 62.701134 444.328400
-66.512085 62.709396 444.418091
-63.662853 63.013271 444.862549
-63.145409 63.021774 444.952301
-62.627861 63.030308 445.042053
-62.110207 63.038872 445.131805
-61.592445 63.047466 445.221588
-61.074577 63.056095 445.311371
-60.556602 63.064754 445.401184
-59.784027 62.819683 445.584961
-59.261189 63.086544 445.625732
-58.742832 63.095318 445.715576
-58.224365 63.104122 445.805450
-57.705788 63.112957 445.895325
-57.187096 63.121826 445.985229
-56.668289 63.130730 446.075104
-56.149368 63.139664 446.165039
-55.630337 63.148628 446.254974
-55.111183 63.157627 446.344910
-54.591919 63.166660 446.434875
-54.072536 63.175728 446.524841
-53.557133 62.926266 446.664063
-53.033417 63.193954 446.704834
-52.513676 63.203121 446.794861
-51.993816 63.212318 446.884888
-51.473839 63.221554 446.974945
-50.953735 63.230816 447.065002
-50.177185 62.985973 447.249451
-49.656734 62.995289 447.339569
-49.136158 63.004631 447.429688
-48.615456 63.014011 447.519836
-47.837826 62.769135 447.704498
-47.313148 63.037609 447.745270
-46.795574 62.788021 447.884918
-46.274258 62.797516 447.975128
-45.752811 62.807041 448.065399
-45.231232 62.816605 448.155640
-44.709522 62.826199 448.245941
-44.187679 62.835831 448.336243
-43.669041 62.586140 448.476074
-43.146889 62.595802 448.566406
-42.624599 62.605495 448.656769
-42.105400 62.355721 448.796753
-41.579617 62.624989 448.837555
-40.798637 62.380093 449.022827
-40.275692 62.389904 449.113281
-39.752605 62.399750 449.203735
-39.229378 62.409630 449.294250
-38.706005 62.419544 449.384766
-38.182495 62.429497 449.475281
-37.658836 62.439480 449.565826
-37.135036 62.449501 449.656403
-34.519112 61.979832 450.209137
-33.994343 61.989983 450.299866
-33.209450 61.744965 450.485809
-32.684261 61.755161 450.576599
-32.158920 61.765392 450.667389
-31.633427 61.775658 450.758209
-29.005829 61.566841 451.262604
-28.218206 61.321728 451.449066
-27.691446 61.332176 451.540100
-27.164522 61.342659 451.631134
-26.637436 61.353176 451.722168
-26.110186 61.363731 451.813263
-25.319002 61.379635 451.949890
-22.684195 60.649269 452.556366
-22.155560 60.659962 452.647644
-21.626755 60.670689 452.738953
-21.097776 60.681450 452.830292
-18.453060 60.212269 453.388031
-17.922939 60.223160 453.479553
-17.393963 59.972168 453.621460
-16.863440 59.983082 453.713043
-16.332733 59.994030 453.804657
-15.801845 60.005016 453.896301
-15.005167 60.021561 454.033783
-12.349325 59.290005 454.644196
-11.816905 59.301117 454.736053
-11.284294 59.312267 454.827972
-10.751491 59.323452 454.919922
-10.219255 59.071980 455.062500
-7.285087 58.608040 455.670319
-6.750679 58.619347 455.762512
-6.216069 58.630692 455.854736
-5.681257 58.642075 455.946991
-5.146599 58.390221 456.090088
-2.200334 57.926178 456.700073
-1.663841 57.937679 456.792603
-1.127137 57.949219 456.885162
-0.590221 57.960793 456.977753
0.215554 57.978218 457.116669
2.905870 57.244331 457.733612
3.444544 57.256020 457.826477
3.983440 57.267742 457.919403
4.792652 57.020947 458.109985
7.493755 56.550564 458.677917
8.305671 56.303413 458.869049
8.846787 56.315247 458.962341
9.388134 56.327110 459.055634
12.100516 55.856285 459.625641
12.644479 55.602795 459.770691
13.187619 55.614742 459.864319
13.731000 55.626728 459.957947
14.274624 55.638748 460.051636
15.157185 55.630962 462.236877
15.705201 55.376106 462.383179
16.527143 55.127171 462.576843
17.074501 55.139278 462.671387
17.622108 55.151417 462.765991
18.445602 54.902344 462.959930
18.993887 54.914513 463.054626
19.542427 54.926720 463.149384
20.365717 54.945095 463.291534
23.212332 54.419003 465.770294
23.765081 54.431187 465.864380
24.596853 54.180328 466.058289
25.150307 54.192539 466.152527
26.092379 54.168056 468.305023
26.537432 53.953773 466.441010
27.486513 53.928104 468.594696
28.043722 53.940411 468.689453
28.882584 53.688026 468.884705
29.440521 53.700359 468.979584
30.280609 53.447823 469.175079
30.839285 53.460178 469.270081
31.814222 53.431889 471.445801
32.375996 53.444309 471.541229
33.222111 53.190369 471.737854
33.784637 53.202816 471.833435
34.632019 52.948711 472.030304
35.195309 52.961182 472.126007
36.195694 52.928780 474.311371
36.608025 52.719402 472.418945
37.332180 52.679585 474.557953
37.899258 52.692146 474.654449
-101.395836 69.325157 447.129059
-100.866013 69.592842 447.169556
-99.930855 69.313599 445.418121
-99.410812 69.320824 445.507324
-98.890701 69.328072 445.596497
-98.370522 69.335350 445.685699
-97.850273 69.342651 445.774902
-97.329956 69.349983 445.864105
-96.809578 69.357330 445.953339
-96.289124 69.364716 446.042572
-95.361488 69.077217 444.235291
-94.843132 69.084625 444.324219
-94.324707 69.092064 444.413177
-93.799057 69.358147 444.453156
-93.280533 69.365669 444.542114
-92.761932 69.373215 444.631073
-91.852806 69.087105 442.837585
-91.336281 69.094681 442.926239
-90.819679 69.102287 443.014923
-90.303009 69.109924 443.103638
-89.786270 69.117584 443.192322
-89.269447 69.125275 443.281036
-88.752556 69.132996 443.369751
-88.235596 69.140739 443.458466
-87.321960 68.835876 441.541840
-86.807419 68.843826 441.631378
-86.292793 68.851807 441.720917
-85.778099 68.859818 441.810486
-85.263321 68.867859 441.900055
-84.748466 68.875923 441.989624
-83.982346 68.631165 442.172577
-83.460968 68.896217 442.213593
-82.945824 68.904388 442.303192
-82.430603 68.912582 442.392822
-81.915298 68.920807 442.482422
-81.148270 68.676117 442.665558
-80.632713 68.684387 442.755219
-80.117073 68.692688 442.844879
-79.601349 68.701019 442.934540
-79.085541 68.709373 443.024231
-78.237785 68.427521 441.242340
-77.801460 68.473083 443.297272
-76.953018 68.448463 441.465179
-76.438965 68.456894 441.554352
-75.924820 68.465355 441.643494
-75.410583 68.473846 441.732666
-74.896263 68.482368 441.821869
-74.381851 68.490929 441.911072
-73.867348 68.499512 442.000275
-73.358223 68.251617 442.138062
-72.843498 68.260231 442.227325
-72.328674 68.268883 442.316559
-71.813766 68.277557 442.405823
-71.298759 68.286270 442.495087
-70.783661 68.295013 442.584381
-70.268463 68.303787 442.673645
-69.753174 68.312592 442.762970
-69.237785 68.321434 442.852264
-68.717194 68.587112 442.892883
-68.201653 68.596054 442.982178
-67.686012 68.605026 443.071533
-67.170280 68.614029 443.160858
-66.654442 68.623062 443.250214
-66.138504 68.632133 443.339569
-65.622459 68.641235 443.428955
-63.036072 68.944412 443.827148
-62.519451 68.953751 443.916565
-62.002728 68.963127 444.006012
-61.485893 68.972534 444.095459
-60.968956 68.981979 444.184937
-60.451908 68.991455 444.274414
-59.934753 69.000969 444.363922
-59.417488 69.010513 444.453430
-58.645706 68.767441 444.636688
-58.123840 69.034531 444.677246
-57.606186 69.044205 444.766785
-57.088417 69.053909 444.856354
-56.570538 69.063644 444.945923
-56.052540 69.073425 445.035522
-55.534431 69.083237 445.125122
-55.016205 69.093079 445.214752
-54.501869 68.845207 445.353485
-53.983368 68.855087 445.443146
-53.464748 68.865005 445.532806
-52.946011 68.874954 445.622498
-52.427155 68.884941 445.712219
-51.908176 68.894966 445.801910
-51.389076 68.905029 445.891663
-50.869858 68.915131 445.981415
-50.350513 68.925262 446.071167
-49.831043 68.935432 446.160950
-49.315071 68.687477 446.299957
-48.795315 68.697678 446.389801
-48.275433 68.707924 446.479614
-47.755421 68.718201 446.569489
-47.235283 68.728516 446.659332
-46.451431 69.002434 446.744843
-43.593861 68.543137 447.338257
-42.815105 68.300301 447.522705
-42.293633 68.310890 447.612762
-41.772026 68.321518 447.702820
-41.250278 68.332184 447.792908
-38.380989 68.132439 448.338226
-37.861069 67.884148 448.478027
-37.338181 67.895012 448.568268
-36.815151 67.905922 448.658539
-36.291981 67.916862 448.748810
-35.509548 67.673973 448.933929
-34.985966 67.684975 449.024261
-34.462234 67.696014 449.114624
-33.938354 67.707085 449.205017
-33.414322 67.718201 449.295410
-32.630383 67.475304 449.480774
-32.105930 67.486473 449.571259
-31.581326 67.497681 449.661743
-31.056564 67.508919 449.752228
-30.271353 67.265999 449.937836
-29.746161 67.277298 450.028412
-28.960203 67.034317 450.214172
-28.434576 67.045670 450.304810
-27.908789 67.057060 450.395447
-27.382839 67.068489 450.486145
-26.858698 66.819748 450.626770
-26.332384 66.831207 450.717499
-25.805906 66.842712 450.808258
-25.279263 66.854256 450.899048
-22.383005 66.397163 451.498840
-21.855186 66.408875 451.589813
-21.327194 66.420616 451.680786
-20.799030 66.432404 451.771790
-20.007917 66.189270 451.958466
-17.364197 65.987701 452.464325
-16.835846 65.738457 452.605774
-16.306049 65.750443 452.697021
-15.776072 65.762459 452.788300
-15.245910 65.774521 452.879608
-14.715563 65.786621 452.970917
-13.919696 65.804848 453.107971
-11.266153 65.080864 453.716492
-10.734269 65.093117 453.808044
-10.202192 65.105408 453.899658
-9.669922 65.117744 453.991272
-8.871150 65.136322 454.128723
-6.206612 64.411804 454.739319
-5.672731 64.424294 454.831177
-5.138647 64.436813 454.923096
-4.604359 64.449371 455.015015
-3.802543 64.468292 455.152954
-1.126520 63.743191 455.765686
-0.590528 63.492844 455.908691
-0.054299 63.505539 456.000946
0.482143 63.518272 456.093231
3.168223 63.055607 456.657013
3.706054 63.068474 456.749512
4.244506 62.817757 456.893036
4.782823 62.830650 456.985626
5.321363 62.843586 457.078217
5.860655 62.592739 457.221954
8.829682 62.136169 457.834503
9.370059 62.149239 457.927429
9.910669 62.162346 458.020355
10.722940 61.917671 458.211090
11.264179 61.930824 458.304138
13.977487 61.202736 458.924011
14.520291 61.215954 459.017303
15.063338 61.229214 459.110657
15.606628 61.242508 459.204041
16.150164 61.255844 459.297455
18.959665 60.522324 461.963440
19.507240 60.535751 462.057770
20.055073 60.549217 462.152130
20.604898 60.295876 462.298462
23.724056 59.805325 464.813019
24.276127 59.818726 464.906769
24.934912 59.813988 467.007263
25.769638 59.564465 467.201233
26.325043 59.577923 467.295471
26.883001 59.321533 467.442505
27.438986 59.335011 467.536835
28.115818 59.327881 469.658386
28.674732 59.341419 469.753113
29.236410 59.083645 469.900940
29.795918 59.097198 469.995758
30.358292 58.839279 470.143738
30.918396 58.852848 470.238647
31.895386 58.848061 472.413025
32.322636 58.615170 470.529358
33.306805 58.609283 472.705566
33.870773 58.622993 472.801300
34.720242 58.370396 472.998474
35.284973 58.384136 473.094330
36.003441 58.368298 475.228607
36.571159 58.382092 475.324860
37.426506 58.128120 475.523193
37.995003 58.141949 475.619598
-100.706245 75.055527 446.137817
-100.185066 75.063385 446.227203
-99.663818 75.071274 446.316620
-99.142494 75.079185 446.406006
-98.621109 75.087120 446.495422
-98.099655 75.095093 446.584839
-97.176399 74.793884 444.835327
-96.656921 74.801849 444.924255
-96.137375 74.809837 445.013214
-95.617760 74.817863 445.102173
-95.098068 74.825905 445.191132
-94.578316 74.833984 445.280090
-94.058479 74.842087 445.369080
-93.538582 74.850220 445.458069
-92.623039 74.540039 443.652313
-92.098434 74.806244 443.692108
-91.580589 74.814468 443.780823
-91.062660 74.822723 443.869507
-90.544662 74.831009 443.958221
-90.026596 74.839325 444.046936
-89.129471 74.530762 442.255188
-88.613457 74.539108 442.343628
-88.097374 74.547485 442.432068
-87.581207 74.555901 442.520508
-87.064972 74.564339 442.608978
-86.548660 74.572807 442.697449
-86.032265 74.581306 442.785919
-85.522064 74.332535 442.923309
-85.005470 74.341064 443.011810
-84.488800 74.349625 443.100311
-83.972054 74.358215 443.188843
-83.074455 74.289223 441.238434
-82.938316 74.375496 443.365906
-82.051682 74.050583 441.465637
-81.537148 74.059464 441.554993
-81.022537 74.068367 441.644379
-80.507835 74.077309 441.733765
-79.993050 74.086288 441.823120
-79.478180 74.095291 441.912537
-78.963219 74.104332 442.001923
-78.448174 74.113403 442.091339
-77.933037 74.122505 442.180756
-77.423424 73.874947 442.318878
-76.902504 74.140808 442.359650
-76.064560 73.836914 440.580841
-75.551216 73.846077 440.669739
-75.037773 73.855270 440.758636
-74.524246 73.864502 440.847534
-74.010628 73.873764 440.936462
-73.496918 73.883057 441.025391
-72.983116 73.892387 441.114319
-72.469223 73.901749 441.203278
-71.955231 73.911148 441.292236
-71.441147 73.920578 441.381195
-70.926971 73.930038 441.470184
-70.412697 73.939545 441.559174
-69.893318 74.205132 441.599579
-69.378891 74.214737 441.688568
-68.864365 74.224373 441.777557
-68.349747 74.234047 441.866577
-67.835022 74.243752 441.955597
-67.320206 74.253494 442.044647
-66.805283 74.263268 442.133698
-66.285530 74.529358 442.174072
-65.770447 74.539238 442.263123
-65.255264 74.549156 442.352203
-64.739975 74.559113 442.441254
-64.224586 74.569099 442.530365
-63.451302 74.584160 442.664001
-62.935650 74.594238 442.753143
-62.419888 74.604355 442.842255
-61.904022 74.614510 442.931396
-61.388050 74.624702 443.020569
-60.871971 74.634933 443.109711
-60.355782 74.645203 443.198914
-59.839481 74.655502 443.288086
-59.323074 74.665840 443.377289
-58.806557 74.676216 443.466492
-58.289925 74.686630 443.555725
-55.450348 74.487564 444.095673
-54.932938 74.498184 444.184998
-54.415405 74.508850 444.274353
-53.897758 74.519554 444.363678
-53.383774 74.273087 444.502075
-52.865849 74.283829 444.591492
-52.347805 74.294601 444.680878
-51.574165 74.053482 444.864105
-51.052166 74.321716 444.904449
-50.533695 74.332634 444.993927
-50.015099 74.343590 445.083374
-49.496384 74.354584 445.172882
-48.977539 74.365608 445.262360
-48.461990 74.119087 445.401062
-47.942856 74.130157 445.490601
-47.423595 74.141273 445.580139
-46.904202 74.152420 445.669739
-46.384682 74.163612 445.759308
-45.865032 74.174843 445.848907
-45.348454 73.928253 445.987793
-44.828503 73.939522 446.077454
-44.308418 73.950836 446.167114
-43.788200 73.962181 446.256775
-43.267849 73.973572 446.346466
-42.750381 73.726921 446.485535
-42.229721 73.738350 446.575256
-41.708923 73.749825 446.665039
-41.187988 73.761330 446.754791
-40.666916 73.772881 446.844604
-37.801163 73.578644 447.388245
-37.281757 73.331848 447.527649
-36.759544 73.343628 447.617584
-36.237183 73.355438 447.707581
-35.714676 73.367302 447.797546
-35.192020 73.379196 447.887543
-34.669216 73.391136 447.977570
-31.795582 72.939430 448.572357
-31.271715 72.951561 448.662537
-30.747692 72.963722 448.752716
-30.223516 72.975929 448.842926
-27.341553 72.524857 449.439056
-26.555426 72.283867 449.624481
-26.029852 72.296280 449.714905
-25.504114 72.308731 449.805328
-24.978210 72.321228 449.895782
-24.452141 72.333763 449.986267
-23.925905 72.346344 450.076782
-21.032988 71.635918 450.724945
-20.505527 71.648636 450.815643
-19.977890 71.661400 450.906372
-19.450079 71.674202 450.997101
-18.658031 71.693481 451.133270
-16.017187 71.237190 451.687805
-15.489026 70.989487 451.828949
-14.959569 71.002518 451.919952
-14.429928 71.015579 452.010956
-13.900101 71.028687 452.101990
-13.370088 71.041840 452.193054
-10.984181 70.579201 452.703827
-10.188093 70.337860 452.891052
-9.656629 70.351166 452.982330
-9.124969 70.364517 453.073639
-6.198107 69.915291 453.677338
-5.398824 69.673767 453.865173
-4.865453 69.687309 453.956757
-4.331879 69.700897 454.048370
-3.798100 69.714531 454.139984
-3.264115 69.728203 454.231659
-0.323337 69.017052 454.888428
0.212130 69.030846 454.980316
0.747812 69.044685 455.072266
1.283707 69.058571 455.164215
2.087955 69.079475 455.302216
5.042432 68.368004 455.961456
5.580204 68.382072 456.053711
6.118200 68.396179 456.145996
9.083525 67.684120 456.807281
9.893845 67.441849 456.997192
10.433837 67.456085 457.089813
10.974064 67.470367 457.182465
11.785820 67.228020 457.372650
12.327698 66.978409 457.516571
12.868834 66.992729 457.609375
13.410210 67.007095 457.702209
14.223892 66.764549 457.892792
14.765910 66.778961 457.985718
15.308171 66.793419 458.078705
15.850676 66.807915 458.171692
16.394766 66.558037 458.316071
16.937803 66.572563 458.409180
20.020102 66.143707 461.063354
20.567259 66.158432 461.157379
21.390221 65.914391 461.350250
21.938063 65.929169 461.444366
25.062719 65.201302 463.998230
25.614536 65.215981 464.091675
26.278778 65.235878 466.189117
27.113171 64.988861 466.382538
27.668322 65.003609 466.476471
28.226068 64.749092 466.623108
29.184921 64.774269 468.788574
30.025299 64.525818 468.983124
30.584284 64.540649 469.077637
31.146120 64.284653 469.225128
31.841675 64.297798 471.346558
32.403942 64.312706 471.441772
32.969231 64.055405 471.590271
33.675529 64.065521 473.717194
34.241093 64.080482 473.812866
34.809837 63.821831 473.962158
35.376019 63.836811 474.057922
36.090748 63.834946 476.123779
36.659832 63.849995 476.219940
37.232315 63.589989 476.370026
38.090179 63.337372 476.568359
38.660381 63.352440 476.664703
-100.031342 80.512650 445.197021
-99.510994 80.521164 445.286133
-98.990570 80.529701 445.375275
-98.470085 80.538261 445.464417
-97.949524 80.546860 445.553558
-97.428886 80.555481 445.642700
-96.908180 80.564133 445.731842
-96.387405 80.572807 445.821014
-95.866562 80.581520 445.910187
-95.345634 80.590256 445.999359
-94.427452 80.525543 444.202820
-93.908546 80.534309 444.291504
-93.389565 80.543106 444.380188
-92.475334 80.209175 442.577606
-91.958427 80.218010 442.666016
-91.441452 80.226875 442.754425
-90.924400 80.235771 442.842865
-90.407272 80.244698 442.931305
-89.890068 80.253654 443.019714
-89.372787 80.262650 443.108185
-88.855431 80.271667 443.196625
-88.337990 80.280716 443.285095
-87.820480 80.289803 443.373535
-87.302895 80.298912 443.462006
-86.417679 79.967949 441.672028
-85.902138 79.977104 441.760223
-85.496758 80.073273 443.820709
-84.978775 80.082504 443.909241
-84.103088 79.752640 442.117828
-83.587151 79.761909 442.206085
-83.071129 79.771210 442.294312
-82.179703 79.679153 440.353821
-82.038841 79.789917 442.470856
-81.522575 79.799316 442.559143
-81.006226 79.808754 442.647430
-80.489784 79.818222 442.735718
-79.616356 79.471458 440.847748
-79.102272 79.481171 440.936859
-78.588104 79.490913 441.026001
-78.073837 79.500694 441.115143
-77.559494 79.510506 441.204285
-77.045052 79.520355 441.293427
-73.895599 79.494423 439.870667
-73.382744 79.504456 439.959320
-72.869797 79.514526 440.047943
-72.356750 79.524628 440.136597
-71.843613 79.534775 440.225281
-71.330383 79.544945 440.313934
-70.817055 79.555161 440.402618
-70.298767 79.820808 440.442810
-69.785286 79.831123 440.531525
-69.271706 79.841484 440.620209
-68.758026 79.851875 440.708923
-68.244247 79.862312 440.797638
-67.730370 79.872780 440.886383
-67.216393 79.883286 440.975098
-66.702309 79.893829 441.063873
-66.188133 79.904411 441.152618
-65.673843 79.915031 441.241394
-65.159462 79.925682 441.330170
-64.644974 79.936378 441.418976
-64.130379 79.947113 441.507782
-63.615681 79.957886 441.596588
-62.847748 79.718208 441.778534
-62.328472 79.984985 441.818695
-61.813404 79.995888 441.907532
-61.298225 80.006836 441.996399
-60.782940 80.017822 442.085297
-60.267544 80.028847 442.174164
-59.752037 80.039909 442.263092
-59.236420 80.051018 442.351990
-58.720692 80.062157 442.440918
-58.204853 80.073341 442.529846
-57.688900 80.084564 442.618805
-57.172832 80.095825 442.707764
-54.336102 79.901985 443.246216
-53.819241 79.913467 443.335266
-53.302261 79.924995 443.424347
-52.788761 79.679916 443.562378
-52.271503 79.691490 443.651489
-51.754128 79.703110 443.740631
-49.168736 79.504852 444.235535
-48.650574 79.516678 444.324738
-48.132290 79.528542 444.413971
-47.613876 79.540451 444.503235
-47.098537 79.295273 444.641632
-46.579826 79.307220 444.730927
-46.060989 79.319214 444.820221
-45.542023 79.331253 444.909546
-45.022919 79.343330 444.998901
-44.506714 79.098099 445.137451
-43.987312 79.110229 445.226837
-43.467773 79.122391 445.316254
-42.948101 79.134605 445.405670
-42.428291 79.146851 445.495087
-41.651154 78.907707 445.678558
-41.130966 78.920029 445.768036
-40.610641 78.932388 445.857544
-39.832600 78.693245 446.041168
-39.311886 78.705673 446.130707
-38.791031 78.718147 446.220276
-38.270035 78.730659 446.309875
-37.748894 78.743217 446.399475
-37.227608 78.755821 446.489105
-36.708668 78.510422 446.628174
-36.187057 78.523071 446.717865
-35.665298 78.535759 446.807556
-35.143391 78.548492 446.897247
-34.621338 78.561272 446.987000
-31.751638 78.115372 447.579956
-31.228523 78.128349 447.669830
-30.705252 78.141373 447.759735
-30.181826 78.154442 447.849640
-29.658241 78.167557 447.939575
-26.779303 77.722565 448.533997
-25.993948 77.483490 448.718872
-25.468966 77.496826 448.809021
-24.943817 77.510208 448.899170
-24.418505 77.523636 448.989349
-23.893024 77.537109 449.079559
-23.367376 77.550629 449.169769
-20.477385 76.847008 449.816132
-19.950512 76.860687 449.906525
-19.423462 76.874405 449.996948
-18.896236 76.888168 450.087402
-18.105066 76.908905 450.223114
-15.203670 76.205383 450.871460
-14.674890 76.219376 450.962158
-14.145925 76.233406 451.052856
-13.616774 76.247490 451.143585
-13.087437 76.261612 451.234344
-10.439260 75.811646 451.788971
-9.909343 75.565224 451.930176
-9.378558 75.579521 452.021149
-8.847579 75.593864 452.112152
-8.316404 75.608261 452.203156
-7.785033 75.622696 452.294220
-4.859756 74.919167 452.946777
-4.326968 74.933754 453.038055
-3.793976 74.948380 453.129364
-3.260778 74.963058 453.220673
-2.460595 74.985161 453.357727
0.477766 74.281563 454.012604
1.012758 74.296455 454.104218
1.547964 74.311394 454.195862
4.496692 73.607407 454.852631
5.033435 73.622490 454.944519
5.570886 73.375122 455.087250
6.108114 73.390244 455.179199
6.645566 73.405411 455.271179
7.452168 73.428246 455.409210
10.147027 72.716095 456.022736
10.686315 72.731438 456.115021
11.225838 72.746834 456.207336
11.765594 72.762268 456.299683
14.471392 72.049561 456.915253
15.350708 72.119507 459.080475
15.894768 72.135170 459.173767
16.368330 71.840385 457.290680
16.910530 71.856033 457.383392
17.452974 71.871727 457.476166
20.535789 71.208443 460.174591
21.082388 71.224304 460.268280
21.629244 71.240211 460.362000
22.450008 71.264168 460.502655
25.680550 70.862511 464.992584
26.124184 70.581596 463.138062
26.789974 70.626030 465.231934
27.344061 70.642006 465.325439
27.900640 70.389458 465.471497
28.455303 70.405472 465.565094
29.012554 70.152802 465.711304
29.974051 70.203461 467.873352
30.532089 70.219559 467.967438
31.092890 69.965561 468.114349
31.933500 69.719498 468.308502
32.912689 69.765465 470.472839
33.899910 69.809608 472.641510
34.749916 69.561142 472.837860
35.317970 69.304428 472.986664
36.315563 69.334961 475.096710
36.886841 69.076942 475.246185
37.742950 68.826950 475.443726
38.761215 68.863495 477.629700
39.333191 68.879883 477.726074
-100.566628 86.308197 446.006470
-100.044975 86.317352 446.095612
-99.523254 86.326538 446.184723
-98.583702 85.971443 444.390717
-98.064056 85.980667 444.479553
-97.544334 85.989914 444.568420
-97.024544 85.999199 444.657318
-96.504677 86.008514 444.746185
-95.984741 86.017860 444.835083
-95.464729 86.027229 444.923981
-94.944641 86.036636 445.012878
-94.424477 86.046074 445.101776
-93.904236 86.055542 445.190704
-93.383926 86.065041 445.279602
-92.863533 86.074570 445.368530
-92.343071 86.084129 445.457489
-91.444374 85.739166 443.711548
-90.919609 86.006706 443.751068
-90.016251 85.650185 441.950195
-89.499855 85.659813 442.038361
-88.983383 85.669479 442.126526
-88.466835 85.679176 442.214691
-87.950203 85.688911 442.302887
-87.433495 85.698677 442.391083
-86.916710 85.708473 442.479279
-86.399841 85.718307 442.567474
-85.882896 85.728172 442.655701
-85.365860 85.738068 442.743927
-84.489288 85.384727 440.956085
-83.974304 85.394676 441.044037
-83.459236 85.404648 441.131989
-83.043884 85.525703 443.189972
-82.171204 85.429741 441.351929
-81.661423 85.183533 441.488739
-81.145935 85.193634 441.576752
-80.630363 85.203773 441.664764
-80.114716 85.213943 441.752777
-79.598969 85.224152 441.840820
-78.725967 85.110542 439.914154
-78.212601 85.121040 440.002991
-77.699135 85.131577 440.091858
-77.185593 85.142143 440.180695
-76.671951 85.152756 440.269562
-76.158218 85.163399 440.358459
-73.277725 84.857689 438.943420
-72.765572 84.868469 439.031799
-72.248489 85.133980 439.071808
-71.736176 85.144875 439.160187
-71.223770 85.155807 439.248566
-70.711273 85.166786 439.336945
-70.198669 85.177795 439.425354
-69.685974 85.188843 439.513763
-69.173172 85.199928 439.602173
-66.607689 85.255959 440.044434
-66.094292 85.267281 440.132904
-65.580788 85.278648 440.221405
-65.067177 85.290047 440.309906
-64.553467 85.301491 440.398407
-64.039642 85.312981 440.486938
-63.525723 85.324501 440.575470
-63.011696 85.336067 440.664001
-62.244568 85.098114 440.845459
-61.726151 85.365158 440.885406
-61.211742 85.376869 440.973999
-60.697227 85.388618 441.062592
-60.182602 85.400414 441.151215
-59.667866 85.412247 441.239807
-59.153015 85.424118 441.328461
-58.384380 85.186356 441.510132
-57.869213 85.198296 441.598816
-57.353931 85.210281 441.687500
-56.838539 85.222305 441.776184
-56.326736 84.978546 441.913696
-55.807404 85.246490 441.953613
-55.295296 85.002739 442.091156
-54.779400 85.014893 442.179932
-54.263386 85.027100 442.268707
-53.747253 85.039345 442.357483
-53.231003 85.051628 442.446289
-52.714626 85.063957 442.535095
-52.198132 85.076332 442.623901
-51.681519 85.088753 442.712738
-51.164780 85.101212 442.801605
-50.386139 85.376251 442.885956
-47.809189 84.670273 443.477478
-47.291435 84.682983 443.566467
-46.773552 84.695740 443.655457
-46.255535 84.708542 443.744476
-45.737392 84.721390 443.833496
-44.962872 84.483986 444.016144
-44.444359 84.496902 444.105225
-43.925716 84.509865 444.194305
-43.406937 84.522873 444.283417
-42.888023 84.535927 444.372559
-42.371742 84.292038 444.510864
-41.852520 84.305145 444.600006
-41.333160 84.318291 444.689209
-40.813660 84.331482 444.778381
-40.294025 84.344719 444.867615
-39.774246 84.358009 444.956818
-39.254326 84.371338 445.046082
-36.657364 83.923729 445.591217
-36.138870 83.679695 445.729919
-35.617832 83.693222 445.819336
-35.096649 83.706795 445.908752
-34.575317 83.720413 445.998199
-31.968477 83.531296 446.495117
-31.187035 83.294090 446.678955
-30.664490 83.307976 446.768555
-30.141788 83.321899 446.858185
-29.618929 83.335884 446.947815
-29.095913 83.349907 447.037476
-28.311090 83.371033 447.171997
-25.697392 82.666664 447.769684
-25.173056 82.680908 447.859528
-24.648554 82.695206 447.949402
-24.123886 82.709549 448.039276
-23.599052 82.723938 448.129181
-23.074049 82.738373 448.219116
-20.187374 82.041428 448.863586
-19.661146 82.056038 448.953705
-19.134745 82.070694 449.043823
-18.608166 82.085403 449.134003
-18.081409 82.100159 449.224182
-17.554478 82.114960 449.314362
-14.919933 81.410873 449.915680
-14.391802 81.425819 450.006073
-13.863486 81.440826 450.096466
-13.334984 81.455872 450.186890
-12.541882 81.478539 450.322601
-9.896936 80.774445 450.925751
-9.366901 80.789711 451.016418
-8.836671 80.805023 451.107086
-8.306246 80.820389 451.197784
-7.775625 80.835808 451.288513
-7.244807 80.851273 451.379272
-4.322399 80.154961 452.029938
-3.790165 80.170593 452.120911
-3.257726 80.186272 452.211914
-2.725190 79.941055 452.353363
-2.192302 79.956787 452.444427
0.208471 79.505630 452.955597
1.009880 79.268105 453.143005
1.544356 79.284019 453.234344
2.079046 79.299988 453.325684
4.756591 78.856964 453.884155
5.561266 78.619301 454.072174
6.097714 78.635475 454.163788
6.634386 78.651695 454.255432
7.171282 78.667969 454.347107
7.977050 78.692467 454.484680
10.939386 77.733185 455.193207
11.478272 77.749634 455.285187
12.017392 77.766129 455.377228
12.826513 77.790962 455.515320
15.869774 77.426559 458.145416
16.413267 77.443382 458.238373
16.957006 77.460258 458.331329
17.696627 77.152367 456.498810
20.858734 76.823189 461.006317
21.406733 76.840065 461.098694
21.868578 76.554512 459.376007
22.688293 76.580231 459.516113
25.916498 76.230347 463.991760
26.471338 75.979736 464.137146
27.024435 75.996864 464.230255
27.579933 75.746140 464.375763
28.133602 75.763306 464.468964
28.811092 75.831810 466.579468
29.367678 75.849075 466.673065
29.926851 75.597046 466.819336
30.765097 75.353546 467.012573
31.322718 75.370857 467.106323
32.017113 75.434364 469.216980
32.577682 75.451805 469.311401
33.141109 75.198402 469.458832
34.128052 75.267738 471.621948
34.694744 75.013039 471.770142
35.687927 75.069527 473.875763
36.108871 74.784515 472.060913
36.825211 74.831131 474.119995
37.395817 74.575027 474.268982
38.250942 74.327606 474.465851
39.270176 74.389435 476.645081
39.841526 74.407135 476.741119
-99.379601 91.773407 445.152649
-98.858673 91.783287 445.241516
-98.337685 91.793198 445.330383
-97.816612 91.803139 445.419250
-97.295464 91.813110 445.508148
-96.774246 91.823112 445.597015
-95.846992 91.445839 443.806213
-95.327843 91.455879 443.894836
-94.808609 91.465958 443.983459
-94.289299 91.476067 444.072083
-93.769913 91.486206 444.160736
-93.250443 91.496376 444.249359
-92.730904 91.506584 444.338013
-92.211281 91.516815 444.426666
-91.691582 91.527092 444.515350
-91.171806 91.537399 444.604004
-90.651947 91.547737 444.692688
-90.132011 91.558105 444.781372
-89.242920 91.191383 443.037842
-88.724937 91.201759 443.126068
-88.206879 91.212166 443.214294
-87.688728 91.222610 443.302521
-87.170509 91.233086 443.390747
-86.277512 91.111641 441.541901
-86.133812 91.254143 443.567230
