# This PCD file was generated using the MATLAB® pcwrite function
# from Computer Vision Toolbox®.
# .PCD v.7 - Point Cloud Data file format
VERSION .7
FIELDS x y z
SIZE 4 4 4
TYPE F F F
COUNT 1 1 1
WIDTH 1506
HEIGHT 1
VIEWPOINT 0 0 0 1 0 0 0
POINTS 1506
DATA ascii
-11.120366 30.196463 460.483093
-10.582285 30.202229 460.577026
-9.775705 29.943657 460.769440
-8.968524 29.684923 460.961975
-8.429542 29.690662 461.056061
-7.890359 29.696419 461.150177
-7.350972 29.702194 461.244293
-6.542115 29.443230 461.437195
-6.002165 29.448997 461.531433
-5.462008 29.454784 461.625702
-4.921643 29.460590 461.720032
-1.946197 28.956480 462.342896
-1.404351 28.962296 462.437469
-0.862288 28.968130 462.532074
-0.320009 28.973982 462.626709
0.493897 28.714300 462.820648
1.041401 28.574854 464.973755
1.580061 28.457352 463.062103
2.123437 28.463177 463.156952
2.951980 28.325390 465.360229
3.498329 28.331240 465.455811
4.044906 28.337109 465.551422
4.571883 28.220598 463.636230
5.116553 28.226463 463.731293
7.604835 27.834591 466.278809
8.428427 27.572721 466.475250
8.977264 27.578579 466.571289
9.526341 27.584454 466.667328
10.075657 27.590343 466.763428
13.157380 27.191034 469.305817
13.712002 26.924362 469.454437
14.265527 26.930153 469.549896
14.819300 26.935959 469.645416
15.373321 26.941782 469.740997
18.150900 26.425047 470.326172
18.786871 26.267292 472.447266
19.345161 26.273071 472.543488
20.185143 26.007233 472.741547
20.744139 26.012993 472.837891
21.676168 25.855267 475.026825
22.145042 25.752657 473.132660
22.705017 25.758413 473.229187
23.365540 25.596451 475.371277
23.928459 25.602196 475.468231
24.775883 25.334494 475.667725
25.339535 25.340216 475.764801
26.015144 25.174932 477.918915
26.581783 25.180656 478.016663
27.151491 24.908524 478.168823
27.718742 24.914215 478.266663
28.286272 24.919922 478.364563
28.857054 24.647528 478.516968
29.837358 24.480261 480.731018
30.408375 24.485910 480.829437
30.982882 24.211960 480.982697
31.554527 24.217575 481.081238
32.546329 24.042543 483.220551
32.988323 23.951778 481.382690
33.561043 23.957382 481.481415
-106.736168 40.591770 453.803925
-105.757584 40.424061 451.974182
-105.230736 40.428181 452.065308
-104.694336 40.696873 452.106750
-104.167419 40.701046 452.197845
-103.640450 40.705235 452.288971
-103.113411 40.709438 452.380096
-102.586319 40.713657 452.471222
-102.059158 40.717892 452.562347
-101.531944 40.722137 452.653503
-100.588455 40.558578 450.879028
-100.063263 40.562828 450.969696
-99.529022 40.830746 451.010803
-99.003754 40.835052 451.101440
-98.060997 40.666264 449.279602
-97.537849 40.670589 449.369995
-97.014641 40.674931 449.460358
-96.482666 40.941910 449.501282
-95.959381 40.946308 449.591675
-95.436028 40.950722 449.682068
-94.912605 40.955151 449.772461
-93.990562 40.786644 447.963287
-93.469246 40.791096 448.053436
-92.947861 40.795567 448.143555
-92.826645 40.710224 450.183685
-91.904884 40.804550 448.323853
-91.778984 40.719208 450.364624
-90.869835 40.551819 448.553589
-90.348061 40.556343 448.643799
-89.826225 40.560883 448.733978
-86.962677 40.324112 449.279755
-86.038193 40.405605 447.270508
-85.917900 40.333370 449.460327
-85.395401 40.338024 449.550598
-84.872826 40.342697 449.640900
-84.350174 40.347389 449.731201
-83.827454 40.352097 449.821533
-82.925911 40.173340 447.866364
-82.405640 40.178173 447.957520
-81.885284 40.183022 448.048676
-81.364853 40.187889 448.139862
-80.844337 40.192772 448.231049
-80.323738 40.197678 448.322266
-79.803062 40.202599 448.413483
-79.282295 40.207535 448.504700
-78.761452 40.212494 448.595947
-78.240524 40.217468 448.687195
-77.719505 40.222462 448.778442
-77.198410 40.227474 448.869720
-76.423439 39.973534 449.056030
-75.902077 39.978561 449.147339
-75.380623 39.983604 449.238678
-74.859085 39.988670 449.330017
-74.337456 39.993752 449.421356
-73.815735 39.998856 449.512726
-72.982811 39.834167 447.695618
-72.463089 39.839268 447.786407
-71.943283 39.844387 447.877228
-71.423378 39.849522 447.968048
-70.903389 39.854679 448.058868
-68.308121 39.619835 448.562592
-67.787506 39.625076 448.653534
-67.266800 39.630337 448.744476
-66.745995 39.635612 448.835419
-66.225090 39.640911 448.926392
-65.704086 39.646229 449.017365
-65.182983 39.651566 449.108368
-64.661781 39.656921 449.199402
-61.798836 39.425358 449.749756
-61.276909 39.430809 449.840851
-60.754871 39.436279 449.932007
-60.232731 39.441772 450.023163
-59.710480 39.447285 450.114319
-59.188118 39.452816 450.205505
-58.399147 39.722767 450.292664
-55.533440 39.230263 450.893921
-54.753338 38.976807 451.080688
-54.229805 38.982464 451.172058
-53.706154 38.988136 451.263428
-52.925209 38.734566 451.450348
-52.401215 38.740253 451.541779
-51.877094 38.745964 451.633240
-51.352856 38.751694 451.724731
-50.828495 38.757446 451.816223
-50.304012 38.763218 451.907715
-49.779404 38.769012 451.999237
-48.996662 38.515289 452.186523
-48.471691 38.521095 452.278107
-47.946594 38.526924 452.369720
-47.421371 38.532772 452.461334
-46.896015 38.538643 452.552979
-46.370533 38.544537 452.644653
-45.844917 38.550446 452.736328
-45.319172 38.556381 452.828033
-44.793293 38.562336 452.919769
-44.271267 38.305466 453.061584
-43.745071 38.311424 453.153351
-43.218742 38.317402 453.245148
-42.692280 38.323402 453.336975
-42.165676 38.329422 453.428802
-39.534149 38.096600 453.938538
-39.006657 38.102707 454.030518
-38.482498 37.845463 454.172791
-37.954674 37.851574 454.264832
-37.426701 37.857704 454.356873
-36.898586 37.863857 454.448975
-36.109398 37.609520 454.637482
-35.580864 37.615685 454.729645
-35.052177 37.621872 454.821808
-34.523346 37.628082 454.914001
-33.994362 37.634312 455.006226
-33.465221 37.640560 455.098450
-32.674187 37.386051 455.287323
-32.144615 37.392311 455.379639
-31.614887 37.398598 455.471985
-31.085005 37.404903 455.564362
-28.435783 37.172436 456.077148
-27.641891 36.917599 456.266571
-27.110706 36.923977 456.359161
-26.579355 36.930378 456.451752
-26.047838 36.936802 456.544403
-25.252544 36.681801 456.734100
-24.720560 36.688232 456.826813
-24.188408 36.694687 456.919556
-23.656082 36.701160 457.012329
-23.123589 36.707657 457.105103
-22.326550 36.452469 457.295166
-21.793571 36.458973 457.388031
-21.260420 36.465500 457.480927
-20.727093 36.472050 457.573853
-19.928577 36.216686 457.764221
-19.394756 36.223240 457.857239
-18.595379 35.967724 458.047791
-18.061056 35.974289 458.140869
-17.526554 35.980873 458.234009
-16.991867 35.987476 458.327148
-16.456997 35.994106 458.420319
-15.921941 36.000755 458.513550
-15.386699 36.007427 458.606781
-14.584806 35.751678 458.797821
-13.782341 35.495789 458.988983
-13.246245 35.502449 459.082367
-12.709957 35.509129 459.175781
-12.173476 35.515835 459.269226
-11.636802 35.522556 459.362701
-11.100935 35.263100 459.507477
-10.563820 35.269817 459.601044
-10.026509 35.276558 459.694641
-9.489000 35.283318 459.788269
-8.683142 35.027027 459.980103
-8.145083 35.033791 460.073822
-7.606823 35.040577 460.167572
-7.068360 35.047386 460.261353
-6.530272 34.787491 460.406586
-5.991351 34.794289 460.500458
-5.452223 34.801109 460.594360
-4.912889 34.807953 460.688263
-4.103849 34.551254 460.880768
-3.308438 34.442783 463.068329
-2.765827 34.449654 463.163025
-2.223003 34.456543 463.257782
-1.679963 34.463455 463.352570
-0.865046 34.205299 463.546783
-0.321413 34.212215 463.641663
0.222439 34.219147 463.736603
0.766510 34.226105 463.831543
3.763667 33.726547 464.458740
4.309744 33.464314 464.606140
4.855655 33.471264 464.701447
5.401797 33.478233 464.796753
5.948168 33.485226 464.892120
8.720818 33.116077 467.380249
9.547011 32.855511 467.575073
10.097519 32.862423 467.669800
10.648264 32.869354 467.764587
11.199249 32.876308 467.859375
11.751644 32.612026 468.007141
12.303164 32.618965 468.102051
13.187304 32.493725 470.262329
13.741800 32.500679 470.357666
14.575453 32.238361 470.553925
15.130621 32.245308 470.649384
15.686037 32.252277 470.744843
16.241705 32.259266 470.840393
17.077372 31.996683 471.037048
17.709763 31.864117 473.170868
18.192135 31.737396 471.281738
18.749050 31.744356 471.377502
19.306225 31.751337 471.473267
20.229305 31.620930 473.656891
20.789526 31.627926 473.753113
21.632496 31.363569 473.951202
22.193426 31.370552 474.047546
23.037613 31.105980 474.245880
23.599262 31.112951 474.342377
24.547508 30.977928 476.537292
25.397272 30.711842 476.737122
25.962488 30.718805 476.834381
26.527977 30.725792 476.931671
27.210352 30.583988 479.088593
27.778822 30.590971 479.186310
28.634918 30.323280 479.387451
29.491821 30.055391 479.588776
30.061527 30.062325 479.686707
30.634594 29.790747 479.839294
31.204926 29.797653 479.937347
31.775543 29.804579 480.035431
32.479954 29.651657 482.121643
33.053497 29.658579 482.220154
33.630714 29.385433 482.373627
34.204899 29.392326 482.472260
-106.705299 46.350868 454.650421
-106.175095 46.355541 454.741852
-104.761360 46.240231 451.019806
-104.235512 46.244938 451.110626
-103.709595 46.249664 451.201447
-103.183624 46.254406 451.292267
-102.657593 46.259167 451.383118
-102.131493 46.263943 451.473969
-101.605339 46.268734 451.564819
-101.079124 46.273544 451.655670
-100.552849 46.278370 451.746552
-100.026505 46.283215 451.837433
-99.081429 46.360123 450.016632
-98.557152 46.364994 450.107025
-98.032814 46.369881 450.197418
-97.508408 46.374790 450.287811
-96.983940 46.379715 450.378204
-96.459412 46.384655 450.468597
-95.934814 46.389614 450.559021
-94.997292 46.459679 448.689178
-94.474854 46.464691 448.779297
-93.952347 46.469719 448.869415
-93.429779 46.474770 448.959564
-92.907135 46.479836 449.049683
-92.384430 46.484921 449.139832
-91.861656 46.490021 449.230011
-91.346779 46.233139 449.369629
-90.955750 46.174446 451.468018
-90.047104 45.983841 449.644623
-89.523926 45.988972 449.734833
-86.645142 46.017544 450.231232
-86.121490 46.022804 450.321503
-85.597763 46.028080 450.411774
-85.073959 46.033379 450.502075
-84.550087 46.038696 450.592377
-84.026131 46.044033 450.682709
-83.149689 45.855045 448.870575
-82.723122 45.794899 450.958252
-81.844849 45.868492 449.095703
-81.322769 45.873905 449.185791
-80.800613 45.879341 449.275848
-79.915413 45.677334 447.334198
-79.395676 45.682911 447.425110
-78.875854 45.688511 447.516052
-78.355957 45.694126 447.606995
-78.195442 45.645134 449.776062
-77.672752 45.650661 449.866211
-76.802383 45.450512 447.929108
-76.282089 45.456181 448.020111
-73.679306 45.484856 448.475281
-73.158478 45.490650 448.566345
-72.637558 45.496471 448.657440
-71.862228 45.244301 448.843475
-71.341034 45.250141 448.934601
-70.819740 45.256004 449.025757
-70.043701 45.003742 449.211914
-69.516098 45.270760 449.253632
-68.994476 45.276699 449.344818
-68.472755 45.282661 449.436035
-67.950935 45.288643 449.527222
-67.142662 45.102291 447.709015
-66.622826 45.108276 447.799683
-66.129517 45.048412 449.896118
-65.607201 45.054462 449.987427
-65.084785 45.060535 450.078705
-64.287910 44.875126 448.257080
-61.684723 44.905712 448.710907
-60.908524 44.654388 448.896545
-60.387363 44.660572 448.987396
-59.866096 44.666779 449.078247
-59.344719 44.673012 449.169128
-58.823231 44.679264 449.260010
-58.045822 44.427837 449.445892
-57.524014 44.434113 449.536835
-57.002090 44.440414 449.627777
-56.480053 44.446735 449.718750
-55.957905 44.453079 449.809753
-55.435638 44.459450 449.900757
-54.913258 44.465843 449.991760
-54.134163 44.214310 450.177948
-53.611443 44.220726 450.269043
-53.088604 44.227161 450.360138
-50.215199 44.001507 450.911194
-49.691521 44.008060 451.002411
-49.167721 44.014641 451.093628
-48.643795 44.021240 451.184906
-48.119743 44.027866 451.276154
-47.595566 44.034515 451.367462
-46.813122 43.782761 451.554291
-46.288570 43.789433 451.645630
-45.763893 43.796127 451.737000
-45.239082 43.802845 451.828369
-44.714142 43.809589 451.919769
-44.189064 43.816357 452.011200
-43.667652 43.561096 452.152618
-43.142262 43.567871 452.244080
-42.616737 43.574673 452.335602
-42.091072 43.581497 452.427094
-41.305916 43.329510 452.614471
-40.779861 43.336353 452.706024
-40.253666 43.343224 452.797638
-39.727329 43.350117 452.889252
-39.200851 43.357033 452.980896
-38.674232 43.363976 453.072571
-38.150795 43.108387 453.214386
-37.623840 43.115337 453.306122
-37.096741 43.122314 453.397858
-36.569492 43.129311 453.489624
-35.781471 42.877071 453.677521
-35.253811 42.884090 453.769348
-34.725994 42.891136 453.861206
-34.198032 42.898205 453.953094
-33.669918 42.905296 454.044983
-33.141651 42.912415 454.136902
-32.616081 42.656475 454.279175
-32.087460 42.663597 454.371155
-31.558685 42.670746 454.463165
-31.029753 42.677921 454.555176
-30.238703 42.425411 454.743683
-29.709330 42.432602 454.835785
-29.179794 42.439819 454.927887
-28.650101 42.447060 455.020050
-28.120245 42.454327 455.112213
-27.327547 42.201672 455.301025
-26.797237 42.208958 455.393280
-26.266762 42.216267 455.485565
-25.736118 42.223598 455.577850
-24.942026 41.970802 455.766937
-24.410917 41.978153 455.859314
-23.879641 41.985531 455.951721
-23.348192 41.992931 456.044128
-22.816572 42.000359 456.136597
-22.286734 41.743694 456.279755
-21.754721 41.751125 456.372284
-21.222532 41.758579 456.464813
-20.690170 41.766060 456.557404
-20.157633 41.773563 456.649994
-19.624916 41.781094 456.742615
-19.092022 41.788647 456.835266
-16.231783 41.213367 459.470612
-15.695263 41.220997 459.564117
-15.093466 41.051613 457.683838
-14.558870 41.059235 457.776794
-14.024085 41.066887 457.869751
-13.548486 40.985550 459.989655
-13.010971 40.993252 460.083313
-12.419672 40.824821 458.199890
-11.884076 40.832523 458.292969
-11.129111 40.753944 460.462738
-10.590672 40.761711 460.556549
-10.052036 40.769501 460.650391
-9.472302 40.602009 458.763458
-8.666403 40.879253 458.852203
-6.277025 40.290768 461.411224
-5.466878 40.035480 461.604034
-4.926166 40.043354 461.698212
-4.385245 40.051254 461.792450
-3.844114 40.059181 461.886688
-3.032260 39.803707 462.079834
-2.490551 39.811642 462.174194
-1.948628 39.819603 462.268585
-1.406491 39.827587 462.362976
-0.864177 39.567932 462.509216
-0.321557 39.575912 462.603729
0.221280 39.583920 462.698273
0.764337 39.591949 462.792847
3.771321 39.260914 465.322418
4.318595 38.999523 465.468750
4.865704 39.007500 465.562683
5.413040 39.015495 465.656647
5.960603 39.023521 465.750671
8.978064 38.528229 466.373535
9.568177 38.426949 468.479614
10.119940 38.435013 468.574249
10.671941 38.443104 468.668915
11.177249 38.290440 466.803589
12.002596 38.302616 466.945251
15.101006 37.693138 469.586700
15.655354 37.701275 469.681763
16.209951 37.709435 469.776886
17.042316 37.721718 469.919617
19.910269 37.101273 472.538696
20.838106 36.994602 474.723145
21.399912 37.002811 474.819550
21.961979 37.011047 474.915985
22.526489 36.744095 475.066254
23.089142 36.752316 475.162811
23.935936 36.489281 475.361542
24.499311 36.497494 475.458221
25.453867 36.386543 477.656342
26.020338 36.394783 477.753479
26.589664 36.126106 477.904846
27.156738 36.134331 478.002045
28.010592 35.869564 478.202240
28.578411 35.877781 478.299591
29.552155 35.756325 480.428467
30.411516 35.490074 480.629700
30.982859 35.498283 480.727600
31.843513 35.231812 480.929108
32.415627 35.240013 481.027130
33.417542 35.120403 483.252747
33.850479 34.981514 481.327057
34.571819 34.856491 483.504944
-105.708649 52.196785 453.690704
-105.179413 52.202061 453.781830
-104.650124 52.207355 453.872955
-104.120773 52.212666 453.964111
-103.170395 52.005798 452.210083
-102.643089 52.011131 452.300964
-102.115723 52.016487 452.391815
-101.588295 52.021858 452.482697
-101.060806 52.027252 452.573578
-100.108200 51.812672 450.750610
-99.582832 51.818092 450.841217
-99.057404 51.823528 450.931824
-98.531906 51.828983 451.022430
-98.006340 51.834461 451.113037
-97.480721 51.839958 451.203674
-96.955025 51.845470 451.294312
-96.429268 51.851009 451.384949
-95.903442 51.856564 451.475586
-95.377548 51.862141 451.566254
-94.851593 51.867737 451.656921
-94.325569 51.873352 451.747589
-93.412758 51.665104 449.975433
-92.888741 51.670727 450.065643
-92.364647 51.676365 450.155823
-91.840492 51.682026 450.246033
-91.316261 51.687710 450.336243
-90.791969 51.693413 450.426453
-90.267601 51.699139 450.516693
-89.743156 51.704884 450.606934
-89.218643 51.710651 450.697174
-88.694061 51.716438 450.787415
-88.169403 51.722252 450.877686
-87.644676 51.728081 450.967957
-87.119873 51.733936 451.058228
-86.594994 51.739811 451.148529
-85.705147 51.526333 449.325775
-85.182358 51.532234 449.415771
-84.659492 51.538162 449.505798
-84.136551 51.544109 449.595795
-83.613533 51.550083 449.685852
-83.090439 51.556076 449.775879
-82.312592 51.303360 449.960541
-81.782356 51.571159 450.001007
-81.265839 51.315426 450.140717
-80.742340 51.321491 450.230804
-80.218758 51.327579 450.320923
-79.695099 51.333691 450.411041
-79.171356 51.339825 450.501160
-78.315590 51.129272 448.689514
-77.793907 51.135437 448.779358
-77.272148 51.141624 448.869232
-76.750298 51.147839 448.959106
-76.228363 51.154076 449.048981
-75.706337 51.160336 449.138885
-74.929459 50.908676 449.323364
-74.407181 50.914963 449.413300
-73.884804 50.921276 449.503235
-73.362343 50.927608 449.593201
-72.839798 50.933968 449.683167
-72.317154 50.940353 449.773132
-71.794426 50.946762 449.863129
-71.271606 50.953194 449.953125
-70.748688 50.959648 450.043152
-70.225685 50.966129 450.133148
-67.353119 50.740616 450.678345
-66.532524 50.521751 448.765656
-66.011261 50.528496 448.856628
-65.489899 50.535267 448.947601
-64.968430 50.542061 449.038605
-64.446861 50.548878 449.129608
-63.925190 50.555725 449.220612
-61.059219 50.332928 449.771027
-60.280621 50.082409 449.957336
-59.758003 50.089390 450.048492
-59.235275 50.096394 450.139648
-58.712440 50.103424 450.230835
-58.189487 50.110481 450.322052
-55.315865 49.888386 450.873688
-54.792122 49.895573 450.964996
-54.268265 49.902790 451.056335
-53.744286 49.910034 451.147675
-53.220188 49.917301 451.239044
-52.695969 49.924599 451.330414
-51.684090 49.983501 449.495850
-49.031223 49.452652 452.070435
-48.505924 49.460087 452.161987
-47.980495 49.467548 452.253540
-47.454933 49.475037 452.345123
-46.729237 49.271656 450.508453
-44.113632 49.048183 451.013550
-43.589329 49.055767 451.104675
-43.252998 49.011131 453.178680
-42.726151 49.018784 453.270447
-42.199165 49.026466 453.362244
-41.672043 49.034176 453.454071
-40.884541 48.783154 453.642029
-40.357021 48.790890 453.733917
-39.829361 48.798653 453.825806
-39.301559 48.806446 453.917725
-38.608074 48.605858 452.071320
-38.082222 48.613647 452.162689
-37.720467 48.567066 454.243927
-37.192039 48.574924 454.335938
-36.663464 48.582813 454.427979
-35.980381 48.383160 452.578430
-35.344360 48.339508 454.708557
-34.815216 48.347450 454.800690
-34.285923 48.355419 454.892822
-33.756477 48.363419 454.984985
-33.084854 48.164684 453.132019
-32.434929 48.120117 455.265991
-31.904898 48.128166 455.358276
-31.374708 48.136250 455.450562
-30.844362 48.144360 455.542847
-30.051085 47.892918 455.731934
-29.520294 47.901054 455.824310
-28.989346 47.909218 455.916718
-28.458233 47.917408 456.009125
-27.807451 47.720543 454.149841
-27.132030 47.674068 456.290985
-26.600298 47.682316 456.383514
-26.068399 47.690586 456.476044
-25.536333 47.698891 456.568634
-24.897036 47.502945 454.705872
-22.344145 47.220478 457.226257
-21.810787 47.228886 457.319031
-21.277258 47.237320 457.411835
-20.745302 46.981178 457.555573
-20.211372 46.989624 457.648438
-19.677263 46.998100 457.741333
-17.005444 46.775917 458.257263
-16.203871 46.523735 458.447968
-15.668299 46.532326 458.541107
-15.132542 46.540947 458.634277
-14.596596 46.549595 458.727478
-14.060461 46.558270 458.820679
-11.110148 46.075272 459.436371
-10.347716 46.013916 461.546082
-9.807619 46.022579 461.638641
-9.228862 45.840218 459.814880
-8.690640 45.849026 459.908447
-7.916381 45.786011 462.014709
-7.375345 45.794746 462.107422
-6.834108 45.803513 462.200195
-6.266648 45.622860 460.381287
-5.751492 45.553787 462.437653
-5.209598 45.562588 462.530548
-4.667499 45.571415 462.623444
-4.125193 45.580273 462.716370
-3.567915 45.401260 460.901855
-3.027439 45.410267 460.995789
-0.051097 44.843693 463.570557
0.493150 44.852634 463.663788
1.037614 44.861603 463.757080
1.582296 44.870598 463.850403
2.127196 44.879623 463.943756
5.151186 44.309433 466.567627
5.699979 44.318508 466.661530
6.248999 44.327610 466.755493
6.798248 44.336742 466.849487
9.549778 43.842247 467.425201
10.420763 43.769558 469.592804
10.974238 43.778763 469.687439
11.479508 43.603981 467.807892
14.580443 43.295120 470.409363
15.415080 43.036854 470.604828
15.970902 43.046135 470.699829
16.526974 43.055443 470.794891
17.436121 42.976776 472.969299
17.996906 42.712429 473.118408
18.556309 42.721767 473.214172
19.115967 42.731133 473.309998
19.675880 42.740528 473.405853
20.237955 42.475948 473.555206
20.798441 42.485336 473.651154
21.732649 42.402744 475.840240
22.202883 42.234673 473.944794
23.144186 42.150822 476.135132
23.708448 42.160255 476.231628
24.275265 41.894009 476.382080
24.840115 41.903435 476.478699
25.405235 41.912891 476.575348
26.077854 41.814438 478.649139
26.538794 41.655876 476.822754
27.500950 41.560921 478.946075
28.069687 41.570400 479.043274
28.641403 41.302479 479.194733
29.210751 41.311951 479.292053
29.783192 41.043842 479.443695
30.353153 41.053307 479.541077
31.342710 40.961109 481.757202
31.915831 40.970612 481.855133
32.779163 40.705742 482.056885
33.643311 40.440685 482.258789
34.217693 40.450165 482.356934
35.225876 40.348370 484.522156
35.803391 40.357899 484.620972
-105.435249 58.000549 454.636841
-104.466339 57.764023 452.827789
-103.937988 57.769897 452.918640
-103.409569 57.775791 453.009491
-102.881088 57.781708 453.100372
-102.352547 57.787643 453.191254
-101.823944 57.793602 453.282135
-101.295273 57.799583 453.373016
-100.356880 57.570576 451.620392
-99.830246 57.576584 451.710999
-99.303551 57.582611 451.801605
-98.776787 57.588657 451.892242
-98.249954 57.594730 451.982880
-97.723061 57.600822 452.073517
-97.196098 57.606937 452.164154
-96.669067 57.613071 452.254791
-96.141975 57.619228 452.345459
-95.210846 57.381950 450.524628
-94.685860 57.388138 450.615021
-94.160805 57.394348 450.705414
-93.635681 57.400581 450.795807
-93.110489 57.406837 450.886200
-92.585220 57.413113 450.976624
-92.059891 57.419415 451.067047
-91.534485 57.425739 451.157471
-91.009003 57.432091 451.247894
-90.483459 57.438461 451.338348
-89.957832 57.444855 451.428772
-89.432137 57.451275 451.519257
-88.650696 57.198112 451.704681
-87.754105 57.230377 449.882019
-87.230293 57.236835 449.972015
-86.706406 57.243320 450.062012
-86.182442 57.249828 450.152039
-85.658409 57.256359 450.242035
-84.879128 57.004261 450.426666
-84.092682 57.014114 450.561737
-83.568291 57.020718 450.651794
-83.043823 57.027344 450.741882
-82.519272 57.033993 450.831940
-81.994644 57.040668 450.922028
-81.469933 57.047367 451.012146
-80.601921 56.812172 449.189484
-80.079285 56.818905 449.279297
-79.556572 56.825661 449.369110
-79.033775 56.832443 449.458954
-78.510895 56.839256 449.548798
-77.987930 56.846088 449.638641
-77.471184 56.591675 449.778107
-76.948006 56.598530 449.868011
-76.424744 56.605412 449.957886
-75.901390 56.612320 450.047821
-75.377953 56.619251 450.137726
-74.854424 56.626213 450.227661
-74.330811 56.633198 450.317596
-73.807106 56.640209 450.407532
-73.283318 56.647251 450.497498
-72.759430 56.654316 450.587463
-71.930603 56.422283 448.775452
-71.455132 56.410419 450.862213
-70.930878 56.417545 450.952240
-70.406532 56.424702 451.042267
-69.882095 56.431881 451.132294
-66.974754 56.230000 449.677765
-66.195923 55.980080 449.862274
-65.672943 55.987411 449.952118
-65.149857 55.994774 450.041992
-64.626678 56.002167 450.131866
-64.103394 56.009583 450.221741
-63.323429 55.759617 450.406464
-62.538013 55.770805 450.541351
-62.014275 55.778301 450.631317
-61.490425 55.785828 450.721283
-60.966473 55.793377 450.811249
-60.442413 55.800957 450.901245
-59.918247 55.808567 450.991241
-59.393974 55.816204 451.081268
-58.610977 55.578636 449.189331
-58.088947 55.586452 449.280212
-57.566807 55.594296 449.371124
-54.697392 55.377319 449.921021
-54.153912 55.370522 452.082428
-53.394146 55.136604 450.198273
-52.870865 55.144634 450.289368
-52.347466 55.152695 450.380432
-51.791981 55.144188 452.538635
-50.780640 54.916069 450.703583
-50.256702 54.924210 450.794739
-49.732639 54.932381 450.885925
-49.208454 54.940578 450.977112
-48.684139 54.948811 451.068329
-47.901310 54.699978 451.255066
-47.376633 54.708241 451.346344
-46.851826 54.716537 451.437622
-46.268406 54.704453 453.588135
-45.542927 54.475960 451.715851
-45.017616 54.484322 451.807220
-44.492168 54.492714 451.898621
-43.966591 54.501133 451.990021
-43.440872 54.509586 452.081451
-42.655506 54.260616 452.268646
-42.129406 54.269104 452.360107
-41.603168 54.277622 452.451630
-41.076790 54.286167 452.543152
-40.728737 54.266239 454.640137
-40.026859 54.041412 452.776337
-39.500015 54.050011 452.867950
-38.973026 54.058640 452.959564
-38.445892 54.067299 453.051178
-37.918617 54.075989 453.142822
-37.394234 53.822525 453.284698
-36.866619 53.831234 453.376404
-36.338860 53.839973 453.468140
-35.810951 53.848743 453.559875
-35.021656 53.599548 453.747833
-34.493328 53.608353 453.839630
-33.964851 53.617191 453.931458
-33.436218 53.626057 454.023315
-32.907433 53.634953 454.115204
-32.116577 53.385677 454.303436
-31.587360 53.394611 454.395386
-31.057987 53.403572 454.487335
-30.528456 53.412567 454.579346
-29.998764 53.421593 454.671356
-27.468637 53.166004 457.168243
-26.821598 52.950047 455.324982
-26.290682 52.959202 455.417206
-25.759600 52.968391 455.509430
-25.228348 52.977608 455.601685
-24.696930 52.986855 455.693970
-21.774614 52.510925 456.303314
-21.241987 52.520287 456.395782
-20.798222 52.486282 458.464508
-20.262894 52.495552 458.556152
-19.727390 52.504852 458.647797
-19.111271 52.294079 456.816742
-16.442987 52.077511 457.330933
-15.976467 52.040051 459.392792
-15.439432 52.049511 459.484680
-14.902213 52.059002 459.576599
-14.364808 52.068523 459.668518
-13.559450 51.817200 459.857941
-12.753535 51.565762 460.047455
-12.215285 51.575314 460.139526
-11.676845 51.584900 460.231628
-11.138214 51.594513 460.323792
-10.330733 51.342960 460.513580
-9.791571 51.352604 460.605804
-9.252214 51.362282 460.698059
-8.712660 51.371990 460.790344
-7.902958 51.386608 460.928833
-5.471983 50.897816 461.448090
-4.680298 50.859108 463.582092
-4.136611 50.868965 463.674957
-3.592718 50.878853 463.767883
-0.870148 50.392319 464.337006
-0.324894 50.402290 464.430145
0.495570 50.360874 466.585938
1.043717 50.370907 466.679474
1.585382 50.168926 464.808502
4.612948 49.896858 467.393097
5.162855 49.907021 467.486938
5.712988 49.917213 467.580780
6.263349 49.927437 467.674652
6.785275 49.727619 465.800781
9.573015 49.177616 468.396545
10.125146 49.187897 468.490723
11.000768 49.137890 470.651611
11.555865 49.148251 470.746429
12.060582 48.953175 468.873352
12.613835 48.963539 468.967712
13.223815 48.907280 471.084137
14.118477 48.855110 473.261078
14.615901 48.660984 471.374756
15.172681 48.671432 471.469849
15.797276 48.612831 473.600677
16.356943 48.623318 473.696167
16.916862 48.633835 473.791687
17.403881 48.440784 471.903809
17.961966 48.451328 471.999115
20.849125 47.885323 474.622223
21.411245 47.895908 474.718140
22.256952 47.637276 474.915710
22.819780 47.647881 475.011719
23.479431 47.575100 477.080017
24.045113 47.585739 477.176422
24.611061 47.596409 477.272919
25.179579 47.331032 477.423340
25.746119 47.341702 477.519897
26.598869 47.081490 477.718842
27.166142 47.092175 477.815521
28.137732 47.028339 480.020935
28.588142 46.842484 478.111511
29.281492 46.772060 480.269836
29.852497 46.782799 480.367157
30.712358 46.520969 480.567688
31.284121 46.531719 480.665131
32.145260 46.269707 480.865936
32.717789 46.280468 480.963501
33.429050 46.199978 483.071960
34.004543 46.210793 483.170197
34.583530 45.941963 483.323364
35.159660 45.952774 483.421692
35.739399 45.683762 483.575012
-104.725761 63.569443 453.678833
-104.196175 63.575916 453.769745
-103.666512 63.582413 453.860687
-103.136787 63.588932 453.951660
-102.607002 63.595474 454.042603
-102.077156 63.602039 454.133575
-101.547234 63.608624 454.224548
-101.017258 63.615234 454.315521
-100.067719 63.356274 452.509552
-99.539818 63.362904 452.600189
-99.011856 63.369560 452.690826
-98.483818 63.376236 452.781464
-97.955719 63.382938 452.872131
-97.427551 63.389664 452.962769
-96.505249 63.138592 451.210968
-95.979111 63.145348 451.301331
-95.452904 63.152130 451.391724
-94.926620 63.158936 451.482117
-94.400276 63.165764 451.572510
-93.873856 63.172619 451.662933
-93.347366 63.179497 451.753326
-92.820801 63.186401 451.843750
-91.904465 62.926498 450.025940
-91.380005 62.933437 450.116058
-90.855469 62.940399 450.206207
-90.330856 62.947388 450.296387
-89.806175 62.954399 450.386536
-89.281418 62.961437 450.476715
-88.756592 62.968506 450.566895
-87.976151 62.717045 450.751831
-87.451088 62.724144 450.842041
-86.925949 62.731270 450.932251
-86.400726 62.738422 451.022491
-85.875435 62.745602 451.112732
-85.350060 62.752808 451.202972
-84.824615 62.760040 451.293243
-84.299080 62.767300 451.383514
-83.773476 62.774586 451.473785
-83.247780 62.781898 451.564056
-82.380630 62.530113 449.790436
-81.939659 62.537807 451.839600
-81.071213 62.548470 450.014954
-80.887543 62.552593 452.020264
-80.361359 62.560028 452.110626
-79.505493 62.309181 450.334076
-78.981285 62.316624 450.423950
-78.457001 62.324093 450.513824
-77.932632 62.331589 450.603699
-77.408173 62.339115 450.693604
-76.883629 62.346668 450.783508
-76.358994 62.354252 450.873413
-75.512672 62.097389 449.050842
-72.643150 61.878796 449.593597
-72.114372 62.147427 449.633636
-71.591217 62.155235 449.723328
-71.067970 62.163071 449.813049
-70.544624 62.170937 449.902771
-70.021187 62.178833 449.992493
-69.204277 61.924244 448.182251
-68.979439 61.933628 450.221710
-68.455666 61.941578 450.311493
-67.639771 61.948135 448.450653
-67.118080 61.956161 448.540161
-66.596283 61.964214 448.629669
-66.074394 61.972298 448.719177
-65.552399 61.980415 448.808716
-65.030304 61.988560 448.898254
-64.223495 61.723202 447.006836
-63.703682 61.731541 447.097229
-63.183758 61.739914 447.187653
-62.663731 61.748314 447.278076
-59.806309 61.535652 447.825012
-59.285534 61.544220 447.915527
-58.764648 61.552818 448.006073
-58.243649 61.561455 448.096619
-57.722538 61.570114 448.187195
-57.201317 61.578812 448.277771
-56.679977 61.587540 448.368347
-54.075737 61.371788 448.871094
-53.553654 61.380672 448.961792
-53.035576 61.129612 449.102081
-52.513206 61.138519 449.192810
-51.990723 61.147465 449.283569
-51.468113 61.156441 449.374329
-50.945377 61.165447 449.465118
-48.333595 60.950623 449.968994
-47.606651 60.700428 448.145050
-47.290085 60.708523 450.200562
-46.766254 60.717716 450.291504
-46.242290 60.726944 450.382477
-45.718201 60.736202 450.473450
-45.001583 60.486904 448.646393
-42.131390 60.278469 449.193542
-41.789722 60.284847 451.256165
-41.264397 60.294312 451.347321
-40.738926 60.303810 451.438477
-40.041946 60.056313 449.605469
-39.518417 60.065811 449.696106
-38.732861 60.080120 449.832062
-36.011688 59.606396 452.410217
-35.484646 59.616104 452.501617
-34.957455 59.625851 452.593048
-34.169056 59.378845 452.780396
-33.641445 59.388634 452.871918
-33.113682 59.398457 452.963409
-32.588310 59.146461 453.105194
-32.060196 59.156307 453.196747
-31.531927 59.166187 453.288361
-31.003500 59.176105 453.379974
-30.212927 58.928963 453.567749
-29.684063 58.938923 453.659424
-29.155039 58.948914 453.751129
-26.357794 58.727295 456.281555
-25.825302 58.737301 456.372528
-25.186094 58.499851 454.540558
-24.655588 58.510048 454.632507
-24.124912 58.520279 454.724457
-21.295723 58.295654 457.248901
-20.495996 58.046867 457.436829
-19.961510 58.057117 457.528137
-19.426847 58.067406 457.619446
-18.892008 58.077724 457.710785
-15.949684 57.605873 458.316010
-15.146650 57.356827 458.504547
-14.610232 57.367283 458.596130
-14.073627 57.377773 458.687744
-13.536836 57.388302 458.779388
-13.055675 57.374756 460.857056
-10.087715 56.900558 461.466553
-9.547088 56.911236 461.558746
-9.006264 56.921947 461.650970
-8.465244 56.932693 461.743195
-7.924025 56.943474 461.835480
-7.351632 56.715328 459.989685
-4.420750 56.451180 464.548706
-3.859250 56.224209 462.683807
-3.316169 56.235134 462.776367
-2.511892 56.221161 464.925812
-1.966050 55.963650 465.070801
-1.419845 55.974632 465.163818
-0.873427 55.985649 465.256866
-0.326795 55.996700 465.349945
0.493654 55.744564 465.541748
1.040870 55.755650 465.634918
1.588304 55.766773 465.728119
2.135957 55.777927 465.821350
4.878468 55.295712 466.392548
5.726617 55.273994 468.541351
6.278389 55.285316 468.635406
6.830389 55.296669 468.729492
7.351789 55.077087 466.865753
8.177105 55.094143 467.006226
11.257801 54.575302 469.641754
11.812056 54.586807 469.736206
12.366551 54.598343 469.830688
12.921287 54.609917 469.925232
15.768801 54.079430 472.534760
16.394957 54.035652 474.594116
16.956198 54.047314 474.689575
17.447163 53.841351 472.873444
20.614124 53.574718 475.418060
21.461014 53.317665 475.615356
22.024715 53.329460 475.711212
22.872787 53.072258 475.908722
23.437197 53.084076 476.004730
24.388290 53.048214 478.199097
24.851587 52.838566 476.298584
25.809828 52.801521 478.494476
26.378048 52.813435 478.591064
26.948940 52.548737 478.741852
27.517757 52.560658 478.838562
28.489294 52.514229 480.983978
28.943584 52.313702 479.134735
29.635981 52.260143 481.233246
30.208469 52.272156 481.330719
30.781240 52.284203 481.428223
31.357100 52.017918 481.580353
32.220177 51.757504 481.781403
32.794048 51.769539 481.879120
33.507660 51.713543 484.002655
33.945694 51.514977 482.129333
34.953438 51.463776 484.302887
35.531052 51.475868 484.401093
36.259315 51.416397 486.528168
-104.439262 69.399544 454.529694
-103.908485 69.406677 454.620850
-103.377640 69.413834 454.711975
-102.846725 69.421013 454.803162
-102.315742 69.428223 454.894318
-101.379829 69.159256 453.175690
-100.850800 69.166466 453.266388
-100.321701 69.173698 453.357086
-99.792542 69.180962 453.447815
-99.263306 69.188240 453.538513
-98.734009 69.195549 453.629242
-98.204636 69.202888 453.719971
-97.675201 69.210243 453.810699
-97.145691 69.217628 453.901459
-96.213203 68.936363 452.098969
-95.685760 68.943771 452.189362
-95.158257 68.951210 452.279755
-94.630676 68.958672 452.370178
-94.103027 68.966156 452.460602
-93.194603 68.693069 450.709900
-92.668976 68.700592 450.800018
-92.143265 68.708138 450.890167
-91.617485 68.715721 450.980347
-91.091637 68.723328 451.070496
-90.565704 68.730957 451.160675
-90.039703 68.738617 451.250854
-89.513626 68.746307 451.341034
-88.987473 68.754021 451.431213
-88.087952 68.471603 449.616089
-87.563889 68.479355 449.706024
-84.686569 68.260933 450.250305
-84.161949 68.268837 450.340302
-83.637245 68.276779 450.430267
-83.112457 68.284744 450.520294
-82.587593 68.292740 450.610291
-82.062645 68.300766 450.700317
-81.281258 68.051041 450.885040
-80.749916 68.320961 450.925385
-80.224678 68.329086 451.015442
-79.699348 68.337250 451.105499
-78.847122 68.063316 449.333069
-78.323769 68.071487 449.422638
-77.800339 68.079681 449.512238
-77.276817 68.087914 449.601837
-76.753204 68.096169 449.691437
-76.229507 68.104462 449.781036
-75.705727 68.112785 449.870667
-75.181847 68.121140 449.960297
-74.401505 67.872589 450.144409
-71.162666 67.859245 446.687256
-70.642601 67.867821 446.776367
-70.122444 67.876434 446.865479
-69.602196 67.885071 446.954590
-69.081848 67.893745 447.043732
-68.561401 67.902451 447.132874
-68.040863 67.911186 447.222015
-67.264938 67.665054 447.405273
-66.444511 67.633331 445.470032
-65.926102 67.642326 445.560059
-65.407593 67.651360 445.650085
-64.888985 67.660423 445.740143
-64.370270 67.669518 445.830200
-63.851452 67.678650 445.920258
-63.332523 67.687813 446.010345
-62.818195 67.438545 446.149628
-62.299019 67.447746 446.239746
-61.779732 67.456970 446.329895
-61.260342 67.466232 446.420013
-60.740837 67.475533 446.510193
-60.221226 67.484863 446.600342
-59.701504 67.494232 446.690552
-59.181671 67.503632 446.780731
-58.412914 67.226700 444.975525
-57.895035 67.236099 445.065155
-57.365658 67.277924 447.145874
-56.845276 67.287437 447.236145
-56.324780 67.296989 447.326416
-55.567329 67.020920 445.517822
-55.027142 67.061951 447.601593
-54.506195 67.071587 447.691956
-53.985130 67.081253 447.782318
-53.236927 66.806076 445.970917
-52.717812 66.815750 446.060730
-52.198578 66.825455 446.150543
-51.679222 66.835197 446.240387
-50.903755 66.591576 446.424408
-50.384052 66.601372 446.514282
-49.864231 66.611198 446.604187
-49.297440 66.650810 448.695374
-48.775063 66.660767 448.785919
-48.047440 66.387337 446.968292
-47.527012 66.397285 447.058289
-47.006451 66.407265 447.148285
-46.485764 66.417290 447.238312
-45.707897 66.173637 447.422760
-45.186844 66.183716 447.512848
-44.665657 66.193817 447.602936
-44.144341 66.203964 447.693054
-43.812569 66.237045 449.746307
-43.104519 65.965385 447.922791
-42.582756 65.975601 448.012939
-42.060860 65.985847 448.103149
-41.538822 65.996132 448.193359
-41.016651 66.006454 448.283569
-40.497360 65.757607 448.423370
-39.974869 65.767960 448.513641
-39.452240 65.778351 448.603943
-38.929466 65.788780 448.694244
-38.406551 65.799248 448.784576
-35.533237 65.338173 449.381104
-34.898647 65.373062 451.491333
-34.372211 65.383774 451.582458
-33.845627 65.394516 451.673584
-33.057941 65.149673 451.860382
-32.530933 65.160469 451.951599
-32.003773 65.171303 452.042816
-31.476454 65.182175 452.134033
-30.687481 64.937294 452.321075
-30.159731 64.948219 452.412384
-29.631819 64.959175 452.503723
-29.103748 64.970177 452.595062
-28.453535 64.703819 450.753998
-27.927385 64.714821 450.844788
-27.137859 64.731384 450.981018
-24.349236 64.285286 453.569183
-23.819395 64.296532 453.660797
-23.289385 64.307816 453.752441
-22.759201 64.319130 453.844086
-21.963606 64.336182 453.981598
-19.047308 63.612183 454.637909
-18.515598 63.623669 454.729828
-17.983709 63.635193 454.821747
-17.451639 63.646755 454.913696
-16.653193 63.664169 455.051636
-13.782161 63.201775 457.607025
-13.246224 63.213371 457.698303
-12.710099 63.225002 457.789612
-12.123425 62.975079 455.986786
-11.321976 62.992851 456.125214
-8.684951 62.519627 458.629181
-8.147062 62.531437 458.720764
-7.608976 62.543289 458.812378
-7.070691 62.555180 458.904022
-6.262889 62.573086 459.041534
-3.311750 61.838017 461.689545
-2.769392 61.850048 461.781769
-2.226824 61.862122 461.874023
0.764542 61.655334 464.442871
1.311048 61.399498 464.587646
1.857648 61.411743 464.680511
2.404466 61.424023 464.773376
2.951504 61.436344 464.866272
3.756580 61.195980 463.046539
6.817915 60.702244 467.678802
7.369230 60.714725 467.772552
7.920775 60.727245 467.866333
8.748527 60.746098 468.007080
11.889726 60.227867 472.609283
12.397735 59.997738 470.798676
12.953912 60.010418 470.893127
16.086214 59.504116 473.480255
16.928019 59.249893 473.676117
17.488607 59.262691 473.771240
18.049450 59.275532 473.866394
18.889565 59.568497 473.955872
21.797676 58.783058 476.634308
22.362947 58.796055 476.730194
23.213352 58.540245 476.927917
23.779331 58.553272 477.023926
24.446514 58.527431 479.110840
25.015383 58.540543 479.207458
25.871429 58.283447 479.406647
26.441023 58.296593 479.503387
27.298288 58.039352 479.702820
27.868614 58.052528 479.799683
28.727112 57.795143 479.999359
29.298180 57.808350 480.096344
29.994295 57.779564 482.211914
30.568298 57.792820 482.309265
31.432568 57.534061 482.510040
32.007328 57.547352 482.607513
32.718018 57.515251 484.727295
33.160595 57.295090 482.857300
33.876732 57.261833 484.978455
34.455097 57.275211 485.076691
35.036812 57.008263 485.229919
35.615810 57.021652 485.328247
36.345703 56.985703 487.459015
36.927692 56.999142 487.557739
-104.439102 75.269379 455.409424
-103.907005 75.277138 455.500549
-103.374840 75.284935 455.591675
-102.417160 74.981270 453.797699
-101.887085 74.989105 453.888580
-101.356941 74.996964 453.979462
-100.826736 75.004845 454.070374
-100.296455 75.012756 454.161285
-99.766106 75.020699 454.252197
-99.235680 75.028664 454.343109
-98.312515 74.738136 452.626190
-97.784035 74.746101 452.716644
-97.255486 74.754105 452.807098
-96.726868 74.762123 452.897552
-96.198174 74.770172 452.988037
-95.669411 74.778252 453.078522
-95.140579 74.786362 453.169006
-94.611664 74.794495 453.259491
-94.082680 74.802666 453.350006
-93.163887 74.499199 451.551514
-92.636963 74.507385 451.641663
-92.109962 74.515610 451.731842
-91.582893 74.523857 451.821991
-91.055748 74.532135 451.912170
-90.528519 74.540443 452.002380
-89.634933 74.245384 450.252625
-89.109718 74.253731 450.342560
-88.584419 74.262100 450.432465
-88.059052 74.270508 450.522369
-87.533600 74.278946 450.612305
-86.373024 74.239052 448.796539
-83.859398 74.076782 451.291840
-82.975761 74.034035 449.428925
-82.451820 74.042725 449.518646
-81.927795 74.051453 449.608368
-81.403687 74.060204 449.698090
-80.879494 74.068993 449.787811
-77.928535 74.067696 448.328857
-77.406006 74.076653 448.418121
-76.556892 73.771027 446.602753
-76.036423 73.780029 446.691772
-75.515862 73.789063 446.780762
-74.995216 73.798126 446.869781
-74.474472 73.807220 446.958801
-73.953644 73.816353 447.047852
-73.432724 73.825516 447.136871
-70.826721 73.871857 447.582245
-70.008110 73.568985 445.779358
-69.488747 73.578362 445.868195
-68.969292 73.587776 445.957001
-68.449738 73.597221 446.045868
-67.930084 73.606712 446.134705
-67.410332 73.616226 446.223572
-66.890488 73.625778 446.312439
-66.078354 73.311211 444.436157
-65.560776 73.320992 444.525879
-65.043091 73.330811 444.615601
-64.525307 73.340668 444.705353
-64.007408 73.350555 444.795105
-63.489414 73.360481 444.884888
-62.971310 73.370445 444.974670
-62.457596 73.122627 445.113556
-61.939240 73.132629 445.203369
-61.420773 73.142662 445.293213
-60.902199 73.152733 445.383057
-60.383514 73.162842 445.472900
-59.605282 73.178070 445.607727
-58.831028 72.935287 445.791748
-58.311855 72.945511 445.881653
-57.792576 72.955765 445.971588
-57.273178 72.966049 446.061554
-56.753666 72.976379 446.151489
-56.234039 72.986748 446.241486
-55.478016 72.687576 444.438599
-54.960335 72.697945 444.528046
-54.442535 72.708344 444.617462
-51.855476 72.503395 445.113953
-51.299023 72.569740 447.195709
-50.562485 72.272293 445.386963
-50.043587 72.282944 445.476532
-49.524559 72.293633 445.566132
-49.005409 72.304352 445.655762
-48.229904 72.062660 445.839417
-47.710400 72.073448 445.929077
-47.190769 72.084267 446.018768
-46.671005 72.095123 446.108459
-46.151115 72.106018 446.198151
-45.634365 71.858887 446.337158
-45.114174 71.869820 446.426941
-44.593849 71.880791 446.516693
-44.073395 71.891808 446.606476
-43.552803 71.902855 446.696289
-42.774731 71.661194 446.880402
-42.437283 71.718933 448.928955
-41.913937 71.730125 449.019440
-41.214375 71.436172 447.199432
-40.692959 71.447357 447.289368
-40.171402 71.458588 447.379303
-39.822006 71.515556 449.431244
-39.297916 71.526901 449.521820
-38.608654 71.233803 447.698730
-38.086491 71.245148 447.788757
-37.564186 71.256531 447.878784
-34.842304 71.104637 450.392212
-34.170544 70.813301 448.563782
-33.647057 70.824898 448.653992
-33.123417 70.836540 448.744202
-32.599628 70.848221 448.834442
-32.215294 70.902832 450.896271
-29.322557 70.446846 451.496552
-28.795246 70.458778 451.587585
-28.267775 70.470757 451.678650
-27.740141 70.482773 451.769714
-27.096233 70.194046 449.932800
-24.574406 70.033432 452.417023
-23.782740 69.790497 452.604156
-23.253574 69.802727 452.695465
-22.724237 69.815002 452.786774
-22.194731 69.827316 452.878143
-21.401674 69.584358 453.065521
-20.873190 69.335144 453.207306
-20.342993 69.347511 453.298767
-19.812620 69.359917 453.390228
-19.282070 69.372368 453.481750
-18.487230 69.129295 453.669464
-17.956196 69.141800 453.761047
-17.424978 69.154343 453.852661
-16.893579 69.166931 453.944275
-16.097282 68.923828 454.132263
-15.631286 68.960182 456.165405
-15.096907 68.972679 456.256256
-14.562344 68.985214 456.347107
-14.027597 68.997795 456.437988
-13.226064 68.753288 456.625397
-12.690809 68.765923 456.716370
-12.155367 68.778603 456.807343
-11.619735 68.791321 456.898376
-11.084689 68.540405 457.040497
-8.135104 68.083084 457.644165
-7.597898 68.095970 457.735413
-7.060494 68.108894 457.826691
-6.522891 68.121864 457.917999
-6.010721 68.156868 459.992371
-3.036793 67.697754 460.600006
-2.495267 67.710930 460.691864
-1.953533 67.724136 460.783752
-1.140557 67.478127 460.973267
1.573464 67.012451 461.536835
2.399100 67.048874 463.681793
2.945228 67.062302 463.774323
3.491576 67.075768 463.866882
4.311916 66.828354 464.057739
4.859307 66.574089 464.202393
5.406518 66.587601 464.295105
6.254414 66.618034 466.432983
6.804529 66.631668 466.526306
7.630797 66.382957 466.718689
8.181529 66.396645 466.812103
8.732492 66.410370 466.905548
9.284485 66.154701 467.051453
9.878134 66.175842 469.160553
10.432202 66.189629 469.254425
10.940538 65.926460 467.384613
11.542026 65.946472 469.495026
12.096851 65.960327 469.589020
12.652984 65.703224 469.735840
13.208334 65.717110 469.829926
13.763926 65.731033 469.924042
16.616701 65.249954 472.458771
17.177591 64.991302 472.606567
17.737343 65.005341 472.701324
18.297344 65.019409 472.796082
19.139420 64.767662 472.991516
22.417404 64.278969 477.639618
22.984341 64.293205 477.735687
23.553518 64.031685 477.885712
24.121031 64.045952 477.981873
25.077082 64.052429 480.136597
25.543131 63.805740 478.276459
26.220652 63.803890 480.384003
26.791790 63.818256 480.480621
27.365503 63.555233 480.631622
27.937237 63.569618 480.728363
28.915207 63.571827 482.889008
29.370249 63.328079 481.024780
30.067644 63.321949 483.138428
30.643066 63.336472 483.235901
31.637653 63.335995 485.404816
32.508282 63.077534 485.606659
33.087276 63.092136 485.704620
33.959183 62.833538 485.906708
34.538948 62.848179 486.004791
35.121983 62.582115 486.158051
35.702381 62.596771 486.256256
36.430500 62.578506 488.344574
37.308800 62.318447 488.548004
-103.745583 80.841011 454.447144
-103.214348 80.849426 454.537994
-102.683044 80.857872 454.628845
-102.151672 80.866348 454.719696
-101.620224 80.874847 454.810577
-101.088707 80.883377 454.901428
-100.557121 80.891937 454.992310
-100.025467 80.900520 455.083191
-99.493736 80.909134 455.174103
-98.552818 80.583267 453.382935
-98.023170 80.591927 453.473572
-97.493446 80.600609 453.564240
-96.963654 80.609329 453.654907
-96.433777 80.618073 453.745575
-95.903831 80.626854 453.836243
-95.373817 80.635658 453.926941
-94.843719 80.644493 454.017639
-93.938225 80.332405 452.301208
-93.410065 80.341248 452.391449
-92.881828 80.350113 452.481689
-92.353516 80.359016 452.571930
-91.825127 80.367950 452.662170
-91.296661 80.376915 452.752411
-90.768120 80.385910 452.842682
-90.239494 80.394936 452.932953
-89.710793 80.403999 453.023254
-88.810875 80.078445 451.227875
-88.284225 80.087532 451.317810
-87.757484 80.096657 451.407745
-87.230675 80.105804 451.497711
-86.703773 80.114990 451.587646
-85.819839 80.059273 449.789124
-85.301064 79.807236 449.928436
-84.776077 79.816490 450.018127
-84.251015 79.825783 450.107819
-83.725868 79.835114 450.197540
-82.844032 79.768219 448.339630
-82.320992 79.777618 448.429047
-81.797859 79.787056 448.518463
-81.274651 79.796524 448.607910
-80.751350 79.806023 448.697357
-80.227966 79.815559 448.786804
-79.704498 79.825127 448.876251
-76.501373 79.808311 447.464386
-75.656670 79.478935 445.651733
-75.136940 79.488708 445.740448
-74.617126 79.498520 445.829163
-74.097214 79.508369 445.917908
-73.577209 79.518250 446.006653
-73.057121 79.528168 446.095398
-72.536934 79.538124 446.184174
-72.016647 79.548119 446.272949
-71.496277 79.558144 446.361725
-70.975807 79.568207 446.450500
-70.157310 79.241798 444.651093
-69.638863 79.251907 444.739594
-69.120323 79.262054 444.828125
-68.601677 79.272240 444.916687
-68.082939 79.282463 445.005219
-67.564102 79.292717 445.093781
-67.049858 79.045044 445.231659
-66.530777 79.055344 445.320251
-66.011604 79.065681 445.408875
