# This PCD file was generated using the MATLAB® pcwrite function
# from Computer Vision Toolbox®.
# .PCD v.7 - Point Cloud Data file format
VERSION .7
FIELDS x y z
SIZE 4 4 4
TYPE F F F
COUNT 1 1 1
WIDTH 1501
HEIGHT 1
VIEWPOINT 0 0 0 1 0 0 0
POINTS 1501
DATA ascii
22.779297 6.797299 486.901459
23.357948 6.514043 487.057190
23.934307 6.515458 487.157257
24.802170 6.232628 487.363281
25.379288 6.233985 487.463470
26.065264 5.974404 489.603912
26.645369 5.975708 489.704803
27.228848 5.690503 489.861938
27.809587 5.691745 489.962921
28.802082 5.429034 492.180176
29.385984 5.430218 492.281586
29.973589 5.143286 492.439667
-116.401070 20.556810 469.926910
-115.853088 20.558989 470.021851
-114.831116 20.754522 468.180450
-114.285294 20.756729 468.275055
-113.739410 20.758944 468.369659
-113.193481 20.761164 468.464294
-112.180229 20.677261 466.615326
-111.625183 20.954201 466.658325
-111.081429 20.956461 466.752686
-110.537628 20.958727 466.847046
-109.993767 20.960999 466.941437
-109.449844 20.963278 467.035797
-108.474190 20.882460 465.278595
-107.932281 20.884737 465.372498
-107.379456 21.160763 465.415070
-106.837486 21.163078 465.508972
-106.295464 21.165401 465.602875
-105.753380 21.167732 465.696808
-104.774925 21.082275 463.859070
-104.235001 21.084616 463.952728
-103.695015 21.086962 464.046417
-103.154968 21.089315 464.140106
-102.614868 21.091677 464.233795
-101.657578 21.281670 462.425720
-101.119530 21.284056 462.518951
-100.581421 21.286451 462.612152
-100.043243 21.288853 462.705383
-99.505013 21.291262 462.798615
-98.966721 21.293678 462.891846
-98.428360 21.296104 462.985077
-97.889931 21.298536 463.078339
-97.351440 21.300978 463.171631
-96.405746 21.213833 461.316650
-95.601189 21.217505 461.455994
-95.064743 21.219963 461.548950
-94.528221 21.222427 461.641876
-93.991638 21.224901 461.734833
-93.067490 21.411303 459.908447
-92.533012 21.413813 460.001099
-91.998459 21.416332 460.093750
-91.463844 21.418861 460.186432
-90.929153 21.421396 460.279114
-90.394402 21.423941 460.371826
-89.859573 21.426495 460.464539
-89.324669 21.429054 460.557251
-88.789696 21.431623 460.649963
-88.254646 21.434202 460.742706
-87.348473 21.346111 458.886108
-86.815559 21.348700 458.978577
-86.282578 21.351297 459.071045
-85.749512 21.353903 459.163544
-85.216370 21.356518 459.256042
-84.683159 21.359140 459.348541
-84.149864 21.361773 459.441040
-83.616493 21.364414 459.533600
-83.083046 21.367064 459.626129
-82.549522 21.369722 459.718689
-81.749084 21.373728 459.857544
-81.215355 21.376408 459.950134
-80.681541 21.379099 460.042725
-80.147652 21.381798 460.135315
-79.284454 21.296078 458.324799
-78.752586 21.298777 458.416931
-78.220634 21.301487 458.509064
-77.688591 21.304207 458.601196
-77.156471 21.306934 458.693359
-76.624260 21.309671 458.785522
-76.099617 21.043959 458.928436
-75.559578 21.315174 458.969910
-75.027107 21.317942 459.062134
-74.494553 21.320717 459.154358
-73.961906 21.323502 459.246613
-73.119209 21.236273 457.399902
-72.588646 21.239069 457.491852
-72.057983 21.241875 457.583832
-71.527237 21.244690 457.675812
-70.996399 21.247515 457.767822
-70.465462 21.250349 457.859863
-69.934433 21.253193 457.951874
-69.403313 21.256046 458.043945
-68.872093 21.258911 458.135986
-68.340775 21.261786 458.228058
-67.809364 21.264668 458.320160
-67.277855 21.267563 458.412262
-66.487099 21.004025 458.601288
-65.689346 21.008354 458.739563
-65.157379 21.011253 458.831726
-64.625313 21.014162 458.923950
-64.093147 21.017082 459.016144
-63.567287 20.751873 459.159332
-63.028503 21.022949 459.200623
-62.233379 20.937536 457.362701
-61.703045 20.940489 457.454681
-61.172604 20.943451 457.546692
-60.642052 20.946421 457.638702
-60.111397 20.949404 457.730743
-59.571480 20.773899 459.851715
-58.790215 20.689592 458.011810
-58.259117 20.692575 458.103943
-57.710495 20.515793 460.226288
-56.930889 20.700073 458.334290
-56.399399 20.703091 458.426483
-55.867794 20.706118 458.518677
-55.336075 20.709156 458.610870
-54.804237 20.712206 458.703125
-54.272282 20.715263 458.795349
-53.479542 20.452143 458.984833
-52.947235 20.455191 459.077148
-52.414810 20.458246 459.169495
-51.621178 20.194941 459.359161
-51.083214 20.465937 459.400391
-50.550358 20.469030 459.492798
-49.797001 20.381933 457.560272
-49.266384 20.385092 457.653564
-48.735638 20.388260 457.746918
-48.204765 20.391439 457.840271
-47.889061 20.216475 460.006348
-47.355392 20.219591 460.098907
-46.616058 20.133945 458.171295
-46.025330 19.959061 460.381653
-45.491150 19.962173 460.474274
-44.956837 19.965300 460.566925
-44.422390 19.968435 460.659607
-43.887810 19.971581 460.752289
-43.163548 19.887405 458.830139
-42.631149 19.890614 458.923767
-42.098614 19.893833 459.017395
-41.565937 19.897062 459.111053
-41.033119 19.900305 459.204742
-40.413792 19.723434 461.406830
-39.704468 19.640720 459.490173
-39.171089 19.643955 459.583954
-38.637569 19.647202 459.677765
-38.103897 19.650457 459.771606
-37.570080 19.653725 459.865448
-37.036114 19.657003 459.959351
-36.238560 19.393879 460.151428
-35.704163 19.397141 460.245392
-35.169613 19.400412 460.339386
-34.789021 19.218641 462.486633
-34.100048 19.406984 460.527435
-33.714195 19.225067 462.672974
-33.033222 19.145226 460.766937
-32.497841 19.148506 460.861053
-31.962301 19.151796 460.955200
-31.426603 19.155096 461.049408
-30.890743 19.158407 461.143616
-30.354721 19.161730 461.237854
-29.818539 19.165062 461.332123
-29.282190 19.168404 461.426392
-26.332003 18.917986 461.997070
-25.797148 18.652260 462.143158
-25.259436 18.655588 462.237701
-24.721548 18.658928 462.332275
-24.183491 18.662277 462.426849
-21.492764 18.409662 462.952026
-20.953590 18.413027 463.046814
-20.232632 18.225937 465.220093
-19.690586 18.229240 465.314056
-19.067007 18.155092 463.430664
-18.336575 17.966484 465.601410
-17.793839 17.969776 465.695496
-17.250917 17.973080 465.789612
-16.707811 17.976391 465.883759
-16.164520 17.979713 465.977936
-15.622650 17.711685 466.124603
-15.078925 17.714977 466.218842
-14.535010 17.718283 466.313141
-13.990905 17.721596 466.407471
-13.446608 17.724918 466.501831
-10.451648 17.199539 467.126617
-9.905964 17.202826 467.221222
-9.400345 17.005112 469.330719
-8.851908 17.008377 469.425690
-8.303268 17.011652 469.520721
-5.282613 16.756142 470.096954
-4.457923 16.487242 470.292938
-3.907505 16.490488 470.388275
-3.356874 16.493744 470.483673
-2.530778 16.224569 470.679932
-1.979552 16.227797 470.775421
-1.428110 16.231031 470.870941
-0.876449 16.234276 470.966492
-0.048537 15.964783 471.163147
0.503732 15.967996 471.258820
1.056222 15.971217 471.354523
1.608936 15.974448 471.450256
2.161873 15.977689 471.546021
2.991702 15.982566 471.689758
5.787651 15.237615 474.317963
6.344817 15.240764 474.414398
6.902218 15.243922 474.510895
7.459855 15.247089 474.607391
8.296755 15.251856 474.752258
11.140545 14.497689 477.395233
11.702523 14.500763 477.492676
12.264748 14.503844 477.590149
12.827222 14.506934 477.687683
13.389945 14.510032 477.785217
16.280901 13.746798 480.451721
17.202003 13.525250 482.587708
17.771536 13.528184 482.686310
18.628353 13.251040 482.889221
19.198603 13.253932 482.987946
19.769117 13.256830 483.086731
20.627638 12.979354 483.289978
21.198881 12.982209 483.388885
21.864716 12.756689 485.584869
22.344618 12.705852 483.641968
23.016029 12.478930 485.839233
23.590899 12.481697 485.938782
24.456402 12.202240 486.143707
25.032022 12.204960 486.243408
26.004189 11.973723 488.427612
26.582924 11.976410 488.527985
27.164934 11.693912 488.684357
27.744301 11.696545 488.784821
28.327078 11.413801 488.941376
28.907080 11.416381 489.041962
29.487368 11.418968 489.142639
30.194494 11.181546 491.304413
30.777800 11.184085 491.405457
-114.578842 26.808296 467.047546
-114.034241 26.811045 467.141846
-113.489578 26.813803 467.236145
-112.944862 26.816566 467.330444
-111.923347 26.981747 465.436676
-111.380867 26.984549 465.530701
-110.838326 26.987360 465.624756
-110.295731 26.990179 465.718781
-109.753075 26.993008 465.812836
-109.210365 26.995846 465.906921
-108.667603 26.998692 466.000977
-107.685150 27.166977 464.194366
-107.144447 27.169847 464.287964
-106.603683 27.172728 464.381531
-106.062866 27.175617 464.475128
-105.521980 27.178516 464.568726
-104.981041 27.181425 464.662323
-104.440041 27.184343 464.755920
-103.898987 27.187269 464.849548
-102.929436 27.077499 463.015930
-102.390526 27.080442 463.109314
-101.851547 27.083393 463.202698
-100.898888 27.249008 461.398895
-100.361969 27.251987 461.491760
-99.824982 27.254976 461.584686
-99.287941 27.257975 461.677582
-98.750832 27.260984 461.770508
-98.213654 27.264004 461.863434
-97.676414 27.267033 461.956360
-97.139114 27.270071 462.049316
-96.601746 27.273121 462.142273
-95.660736 27.161592 460.293365
-95.116234 27.434341 460.335297
-94.590195 27.167721 460.478577
-94.054817 27.170801 460.571198
-93.519379 27.173891 460.663818
-92.983864 27.176992 460.756439
-92.065033 27.338797 458.932739
-91.531624 27.341940 459.025085
-90.998138 27.345095 459.117432
-90.464592 27.348259 459.209808
-89.930969 27.351435 459.302185
-89.397270 27.354622 459.394562
-88.596596 27.359425 459.533173
-88.062721 27.362638 459.625580
-87.528770 27.365866 459.717987
-86.626892 27.253374 457.866150
-86.095070 27.256617 457.958282
-85.563171 27.259869 458.050446
-85.031197 27.263132 458.142609
-84.499146 27.266409 458.234802
-83.967018 27.269695 458.326965
-83.434814 27.272993 458.419189
-82.902527 27.276304 458.511383
-82.370163 27.279627 458.603607
-81.837715 27.282961 458.695862
-81.305191 27.286306 458.788086
-80.772591 27.289665 458.880341
-80.239899 27.293036 458.972626
-79.707130 27.296417 459.064911
-78.846931 27.186939 457.258820
-78.316177 27.190325 457.350586
-77.785339 27.193722 457.442413
-77.254417 27.197130 457.534210
-76.723404 27.200552 457.626068
-76.192307 27.203985 457.717896
-75.661133 27.207432 457.809753
-75.129860 27.210890 457.901642
-74.340019 26.948652 458.090057
-73.808479 26.952108 458.181976
-73.276848 26.955580 458.273895
-72.745125 26.959063 458.365845
-72.213310 26.962557 458.457794
-71.681404 26.966064 458.549774
-71.149406 26.969585 458.641754
-70.319107 26.859215 456.796600
-69.789185 26.862751 456.888306
-69.293419 26.714199 459.014557
-68.463951 26.871647 457.117645
-67.933693 26.875225 457.209412
-67.403336 26.878819 457.301178
-66.872879 26.882425 457.392944
-66.342323 26.886045 457.484741
-65.811668 26.889677 457.576569
-65.280914 26.893322 457.668396
-64.756363 26.630037 457.810974
-64.225357 26.633675 457.902832
-63.694241 26.637325 457.994720
-62.903519 26.375711 458.183380
-62.366001 26.646507 458.224518
-61.834522 26.650204 458.316467
-61.302937 26.653913 458.408447
-60.771240 26.657637 458.500427
-60.239437 26.661371 458.592407
-59.456535 26.553028 456.756256
-58.915207 26.403393 458.873383
-58.382969 26.407141 458.965454
-57.850616 26.410900 459.057526
-57.057461 26.149012 459.246643
-56.281727 26.309332 457.357697
-55.751228 26.313128 457.449554
-55.220615 26.316938 457.541443
-54.689884 26.320763 457.633301
-54.159039 26.324598 457.725220
-53.628071 26.328449 457.817139
-53.102184 26.065628 457.959991
-52.570930 26.069469 458.051971
-52.039555 26.073324 458.143951
-51.508057 26.077192 458.235962
-48.587372 25.831654 458.793427
-48.055012 25.835571 458.885590
-47.522522 25.839502 458.977753
-46.989902 25.843449 459.069946
-46.457153 25.847408 459.162170
-45.924274 25.851381 459.254395
-44.923061 26.010489 457.333832
-42.194530 25.612001 459.951874
-41.397537 25.350380 460.141815
-40.863262 25.354403 460.234283
-40.328850 25.358442 460.326782
-37.658360 25.110807 460.840973
-37.123032 25.114887 460.933624
-36.587555 25.118980 461.026276
-36.051929 25.123089 461.118958
-35.516155 25.127209 461.211670
-34.829128 25.022783 459.311676
-34.179440 24.869213 461.495117
-33.643085 24.873341 461.587921
-33.106575 24.877481 461.680756
-32.569912 24.881638 461.773590
-31.895197 24.778679 459.878265
-31.360620 24.782913 459.972046
-30.693394 24.627598 462.150482
-30.155970 24.631771 462.243469
-29.618383 24.635960 462.336487
-29.080639 24.640160 462.429504
-26.392076 24.392277 462.946930
-25.853291 24.396517 463.040131
-25.047281 24.133636 463.231903
-24.508018 24.137865 463.325195
-23.968588 24.142109 463.418518
-23.161417 23.879019 463.610504
-22.621500 23.883251 463.703918
-22.081409 23.887495 463.797363
-21.541143 23.891754 463.890839
-21.000700 23.896027 463.984314
-20.460079 23.900312 464.077850
-19.650768 23.636930 464.270264
-19.109648 23.641205 464.363892
-18.568344 23.645491 464.457520
-17.832470 23.480190 466.603638
-17.288374 23.484478 466.697662
-16.674002 23.390451 464.837708
-16.131817 23.394751 464.931488
-15.589444 23.399065 465.025330
-15.046885 23.403393 465.119171
-14.566543 23.234573 467.220734
-14.021264 23.238894 467.314972
-13.419402 23.145960 465.453247
-12.876026 23.150291 465.547241
-10.200913 22.725471 468.080719
-9.653961 22.729797 468.175232
-9.106809 22.734138 468.269806
-8.559455 22.738491 468.364380
-8.011899 22.742859 468.459015
-7.464139 22.747238 468.553650
-4.448632 22.226236 469.180542
-3.625068 21.959959 469.375824
-3.075472 21.964289 469.470795
-2.525662 21.968632 469.565826
-1.707864 21.793566 471.741180
-1.155139 21.797899 471.836609
-0.602196 21.802250 471.932098
-0.048828 21.715105 470.046875
0.781226 21.538658 472.224182
1.334999 21.542997 472.319794
1.888995 21.547352 472.415436
2.443216 21.551716 472.511139
2.997662 21.556095 472.606873
3.537434 21.470043 470.719727
6.636998 20.846399 475.378143
7.195684 20.850727 475.474762
7.754606 20.855070 475.571411
8.278996 20.772188 473.678802
8.836053 20.776531 473.774994
11.726663 20.139124 478.417450
12.238515 20.058928 476.508026
12.799795 20.063208 476.605133
13.361324 20.067497 476.702240
13.923102 20.071800 476.799408
17.163284 19.421301 481.438019
18.017668 19.147360 481.639862
18.586370 19.151543 481.738068
19.155334 19.155737 481.836334
19.726654 18.879417 481.989380
20.296207 18.883572 482.087738
20.866028 18.887739 482.186127
21.438387 18.611147 482.339417
22.390539 18.413774 484.577728
22.963827 18.417871 484.676727
23.826811 18.141720 484.880585
24.400843 18.145781 484.979736
24.975149 18.149853 485.078918
25.552464 17.871368 485.233521
26.127386 17.875397 485.332825
26.814075 17.668259 487.462372
27.391970 17.672266 487.562347
27.973145 17.392191 487.718079
28.551668 17.396154 487.818176
29.543695 17.187933 490.023590
30.125362 17.191866 490.124084
30.710625 16.910137 490.280731
31.292934 16.914024 490.381348
31.875538 16.917921 490.482025
-113.519600 32.842186 466.059052
-112.976105 32.845497 466.153015
-111.956467 32.985268 464.265900
-111.415192 32.988617 464.359619
-110.873863 32.991978 464.453339
-110.332474 32.995346 464.547058
-109.791031 32.998730 464.640778
-109.249527 33.002121 464.734528
-108.707970 33.005527 464.828278
-108.166351 33.008942 464.922028
-107.186966 33.152733 463.117615
-106.647408 33.156174 463.210876
-106.107788 33.159630 463.304138
-105.568108 33.163094 463.397400
-105.028374 33.166569 463.490692
-104.488571 33.170055 463.583984
-103.948715 33.173557 463.677307
-102.980255 33.039577 461.848663
-102.442543 33.043095 461.941711
-101.904762 33.046627 462.034790
-101.366928 33.050171 462.127869
-100.829025 33.053722 462.220947
-100.291061 33.057289 462.314026
-99.753029 33.060871 462.407135
-98.810188 33.202312 460.606293
-98.274200 33.205921 460.698914
-97.738152 33.209541 460.791504
-97.202034 33.213177 460.884125
-96.665848 33.216824 460.976776
-96.129601 33.220482 461.069427
-95.593292 33.224155 461.162079
-95.065903 32.958027 461.305573
-94.123795 33.092083 459.411316
-93.589531 33.095779 459.503601
-93.055199 33.099491 459.595917
-92.520805 33.103214 459.688263
-91.986336 33.106953 459.780579
-91.451797 33.110703 459.872925
-90.917183 33.114468 459.965271
-90.382507 33.118248 460.057648
-89.847755 33.122040 460.150024
-89.312927 33.125847 460.242401
-88.418465 32.995483 458.470367
-87.983841 32.866379 460.524109
-87.086357 33.005070 458.700653
-86.553375 33.008926 458.792786
-86.020325 33.012802 458.884918
-85.487198 33.016689 458.977081
-84.953995 33.020588 459.069244
-84.420715 33.024506 459.161407
-83.887360 33.028435 459.253601
-83.001678 32.892788 457.404663
-82.470436 32.896736 457.496552
-81.939110 32.900700 457.588470
-81.493950 32.778004 459.719299
-80.610443 32.910671 457.818329
-80.078835 32.914684 457.910278
-79.547142 32.918713 458.002258
-79.015366 32.922756 458.094238
-78.483505 32.926815 458.186218
-77.951561 32.930889 458.278229
-77.419533 32.934978 458.370239
-76.887421 32.939083 458.462250
-76.355217 32.943199 458.554291
-75.822929 32.947334 458.646362
-75.031395 32.686043 458.835114
-74.183716 32.821423 456.978577
-73.966187 32.694340 459.019318
-73.433441 32.698509 459.111450
-72.900612 32.702698 459.203583
-72.068283 32.571583 457.395508
-71.537445 32.575771 457.487152
-71.006523 32.579979 457.578827
-70.475502 32.584202 457.670502
-69.944389 32.588440 457.762177
-69.413185 32.592693 457.853882
-68.622658 32.332264 458.042084
-68.084740 32.603394 458.083221
-67.267830 32.469955 456.239471
-66.738441 32.474270 456.330933
-66.208954 32.478596 456.422424
-65.679367 32.482941 456.513916
-65.166145 32.360233 458.638733
-64.634003 32.364594 458.730591
-63.831043 32.232277 456.884827
-63.300949 32.236660 456.976379
-62.770748 32.241058 457.067963
-62.510269 32.114929 459.148926
-61.710037 32.249901 457.251190
-61.179523 32.254349 457.342834
-60.648903 32.258812 457.434479
-60.118172 32.263290 457.526154
-59.587334 32.267788 457.617828
-59.061962 32.005943 457.760254
-58.530849 32.010437 457.851990
-57.999630 32.014946 457.943726
-57.468296 32.019474 458.035492
-56.936852 32.024014 458.127258
-54.016949 31.782549 458.683228
-53.484699 31.787163 458.775116
-52.952328 31.791794 458.867035
-52.419838 31.796440 458.958984
-51.887226 31.801104 459.050934
-51.138672 31.672119 457.213348
-50.608063 31.676804 457.305023
-50.077332 31.681505 457.396759
-49.760262 31.552834 459.469971
-49.226978 31.557545 459.562042
-48.693573 31.562271 459.654114
-47.957706 31.434395 457.814728
-47.426296 31.439142 457.906555
-46.830078 31.311594 460.027679
-46.296043 31.316359 460.119873
-45.761871 31.321140 460.212067
-44.964642 31.060802 460.401611
-44.162766 31.067986 460.540009
-43.628010 31.072796 460.632324
-43.093121 31.077621 460.724640
-42.558090 31.082466 460.816986
-41.846485 30.956800 458.974121
-41.313438 30.961664 459.066223
-40.956078 30.829210 461.145447
-40.420444 30.834082 461.237915
-39.884666 30.838970 461.330353
-39.352497 30.575813 461.474243
-38.649773 30.719315 459.578186
-38.115826 30.724239 459.670441
-37.581734 30.729183 459.762695
-37.047493 30.734144 459.854980
-36.402073 30.602875 461.983398
-35.714661 30.479414 460.137085
-35.179852 30.484392 460.229462
-34.644894 30.489388 460.321869
-34.109783 30.494402 460.414276
-31.434938 30.252129 460.928192
-30.898851 30.257202 461.020782
-30.224056 30.123423 463.153595
-29.685255 30.128510 463.246552
-29.024071 30.007254 461.396545
-28.487211 30.012360 461.489258
-25.802937 29.769997 462.004852
-25.265036 29.775162 462.097717
-24.833431 29.636269 464.188019
-24.292871 29.641439 464.281281
-23.752140 29.646627 464.374542
-23.113958 29.527561 462.521271
-20.506067 29.408266 464.986786
-19.880415 29.290297 463.131744
-19.423731 29.148813 465.225830
-18.881310 29.154062 465.319397
-18.338705 29.159328 465.412964
-17.795919 29.164614 465.506592
-15.080662 28.920860 466.027313
-14.266025 28.658323 466.220306
-13.721731 28.663637 466.314178
-13.177246 28.668970 466.408081
-12.632568 28.674320 466.501984
-11.816319 28.411552 466.695313
-11.045897 28.267427 468.859375
-10.498027 28.272762 468.953766
-9.908143 28.159275 467.076996
-9.362181 28.164625 467.171143
-8.816018 28.169994 467.265320
-8.305339 28.021872 469.384338
-7.756411 28.027241 469.478912
-7.207279 28.032627 469.573517
-6.629970 27.920233 467.694946
-6.108974 27.770790 469.815613
-5.559169 27.776175 469.910339
-5.009156 27.781576 470.005096
-4.458933 27.786995 470.099884
-3.908499 27.792431 470.194702
-3.082729 27.527615 470.389893
-2.531709 27.533039 470.484833
-1.980475 27.538481 470.579773
0.782430 27.132374 473.137573
1.331816 27.024471 471.256409
1.892816 26.868536 473.382446
2.448293 26.873978 473.478271
3.003996 26.879436 473.574158
3.559926 26.884912 473.670074
6.344347 26.361925 474.257233
6.901775 26.367386 474.353424
7.459439 26.372864 474.449646
8.017340 26.378359 474.545898
8.575477 26.383867 474.642181
9.413131 26.392164 474.786713
12.597499 25.527590 479.459320
13.109588 25.430531 477.631500
13.672499 25.435970 477.728546
16.844055 25.010815 480.298859
17.410999 25.016253 480.396545
17.980055 24.742521 480.548676
18.547575 24.747929 480.646454
19.115356 24.753353 480.744232
19.685429 24.479370 480.896606
20.253794 24.484762 480.994537
20.822424 24.490171 481.092499
21.483686 24.317986 483.273193
22.055305 24.323383 483.371643
22.915611 24.050463 483.574432
23.487965 24.055836 483.673004
24.448523 23.879351 485.843201
25.023954 23.884726 485.942474
25.890314 23.610201 486.146851
26.466503 23.615549 486.246246
27.334154 23.340767 486.450897
27.911104 23.346087 486.550446
28.780060 23.071045 486.755371
29.357780 23.076336 486.855042
30.061535 22.891781 489.005035
30.642248 22.897051 489.105133
31.226521 22.617748 489.261108
31.807875 22.622978 489.361298
-112.742897 38.852215 465.025970
-112.200508 38.856087 465.119659
-111.658066 38.859974 465.213348
-111.115570 38.863873 465.307037
-110.105682 38.978550 463.425507
-109.565384 38.982494 463.518951
-109.025040 38.986454 463.612366
-108.484627 38.990425 463.705811
-107.944160 38.994408 463.799255
-107.403641 38.998405 463.892731
-106.863052 39.002419 463.986176
-106.322403 39.006443 464.079651
-105.781700 39.010483 464.173126
-105.240936 39.014538 464.266632
-104.283630 38.863396 462.513000
-103.735329 39.138081 462.555054
-102.768997 38.980007 460.731293
-102.232422 38.984108 460.824036
-101.695778 38.988228 460.916779
-101.159081 38.992359 461.009552
-100.622307 38.996506 461.102295
-100.085480 39.000668 461.195099
-99.548584 39.004845 461.287872
-99.011627 39.009033 461.380676
-98.474602 39.013241 461.473480
-97.937508 39.017460 461.566284
-97.400352 39.021698 461.659088
-96.863129 39.025948 461.751923
-95.941917 38.874653 460.003998
-95.406670 38.878906 460.096344
-94.871361 38.883179 460.188690
-91.925934 38.906944 460.696838
-90.998741 39.016056 458.807037
-90.473457 38.752563 458.949585
-89.931602 39.024872 458.991119
-89.406075 38.761356 459.133728
-88.872276 38.765778 459.225800
-88.338402 38.770214 459.317902
-87.804459 38.774670 459.410004
-84.866394 38.799461 459.916748
-83.990288 38.646812 458.145233
-83.457947 38.651379 458.237122
-82.925522 38.655964 458.329010
-82.393021 38.660564 458.420929
-81.860435 38.665184 458.512848
-81.327774 38.669823 458.604767
-78.065590 38.532230 457.171814
-77.534653 38.536968 457.263519
-77.003624 38.541721 457.355225
-76.472511 38.546497 457.446960
-75.941315 38.551289 457.538696
-75.410027 38.556095 457.630432
-74.878647 38.560925 457.722198
-74.353958 38.299171 457.864502
-73.815628 38.570633 457.905762
-73.290657 38.308853 458.048096
-72.758873 38.313721 458.139923
-72.226990 38.318607 458.231750
-71.695023 38.323513 458.323608
-71.162956 38.328434 458.415466
-70.630798 38.333378 458.507355
-70.098541 38.338337 458.599243
-69.278336 38.184654 456.793121
-68.748077 38.189621 456.884521
-68.241112 38.088821 458.971649
-67.708374 38.093834 459.063599
-67.175529 38.098862 459.155579
-66.366730 37.946182 457.346527
-65.835876 37.951218 457.438019
-65.304924 37.956272 457.529541
-64.773865 37.961346 457.621063
-64.242706 37.966434 457.712585
-63.711449 37.971546 457.804138
-63.180084 37.976677 457.895691
-62.648617 37.981827 457.987274
-61.856853 37.723232 458.175323
-61.325073 37.728394 458.266968
-60.793182 37.733574 458.358612
-60.261185 37.738777 458.450256
-59.729076 37.743996 458.541931
-59.196857 37.749237 458.633636
-58.416748 37.595032 456.787811
-57.871109 37.495754 458.913696
-57.338451 37.501026 459.005463
-56.805679 37.506317 459.097229
-56.011429 37.247452 459.285767
-55.239014 37.361206 457.387238
-54.708099 37.366550 457.478790
-54.177071 37.371914 457.570313
-53.645920 37.377300 457.661896
-53.114651 37.382702 457.753448
-52.583263 37.388126 457.845062
-52.056519 37.127602 457.987457
-51.524837 37.133026 458.079102
-50.993038 37.138474 458.170776
-50.461113 37.143940 458.262451
-49.929066 37.149426 458.354156
-49.135262 36.891472 458.542633
-48.602852 36.896969 458.634399
-48.070313 36.902485 458.726166
-47.537647 36.908020 458.817963
-47.004852 36.913578 458.909790
-46.405445 36.810780 461.043671
-45.676487 36.661041 459.190399
-45.143185 36.666630 459.282288
-44.534920 36.562622 461.417633
-43.809349 36.680691 459.512115
-43.462875 36.573875 461.602173
-42.745598 36.425247 459.747162
-42.211506 36.430908 459.839203
-41.677273 36.436588 459.931244
-41.142902 36.442287 460.023315
-40.608395 36.448006 460.115387
-40.073742 36.453747 460.207489
-39.538952 36.459511 460.299622
-38.740059 36.201057 460.489075
-38.204857 36.206829 460.581268
-37.669514 36.212620 460.673462
-37.134022 36.218433 460.765717
-36.598385 36.224262 460.857971
-36.062599 36.230118 460.950256
-35.529938 35.968563 461.093903
-34.993805 35.974415 461.186218
-34.457520 35.980286 461.278595
-33.921085 35.986179 461.370972
-33.119198 35.727390 461.561005
-32.582329 35.733292 461.653473
-32.045303 35.739216 461.745972
-31.508125 35.745155 461.838470
-30.970787 35.751122 461.931000
-30.433292 35.757103 462.023529
-29.898399 35.495136 462.167664
-29.360535 35.501118 462.260284
-28.822510 35.507118 462.352905
-28.284323 35.513142 462.445587
-25.593288 35.275185 462.960938
-25.054058 35.281288 463.053772
-24.516928 35.018898 463.198364
-23.977308 35.024994 463.291260
-23.437517 35.031113 463.384186
-22.897554 35.037251 463.477142
-22.182716 34.924759 465.628662
-21.548883 34.783875 463.761475
-21.008261 34.790039 463.854523
-20.467461 34.796227 463.947632
-19.926483 34.802429 464.040741
-19.197247 34.688702 466.194458
-18.574972 34.548920 464.325592
-18.033314 34.555149 464.418823
-17.491472 34.561401 464.512085
-16.750393 34.446426 466.667633
-16.205746 34.452702 466.761292
-15.662359 34.188381 466.907196
-15.117287 34.194649 467.000916
-14.572025 34.200939 467.094696
-14.026573 34.207245 467.188477
-13.209257 33.945866 467.381531
-12.663275 33.952175 467.475403
-12.117099 33.958508 467.569305
-11.570728 33.964859 467.663239
-10.751794 33.703270 467.856628
-10.204880 33.709625 467.950653
-9.657768 33.716000 468.044708
-9.110456 33.722393 468.138794
-8.562944 33.728806 468.232941
-8.049539 33.603962 470.341583
-7.467992 33.470192 468.473816
-6.919820 33.476616 468.568054
-6.371442 33.483063 468.662323
-3.642273 33.109913 471.206238
-3.090235 33.116413 471.301270
-2.537983 33.122932 471.396332
-1.985516 33.129475 471.491425
-1.426851 32.997696 469.617706
1.611212 32.625126 472.216705
2.174798 32.494202 474.355011
2.720174 32.364449 472.460693
3.274899 32.371021 472.556213
3.829851 32.377613 472.651733
6.637228 31.996384 475.229279
7.476255 31.730682 475.427063
8.035449 31.737276 475.523224
8.594881 31.743893 475.619446
9.154551 31.750526 475.715698
11.958916 31.231649 476.305084
12.571911 31.086859 478.377167
13.135711 31.093477 478.474060
13.699759 31.100119 478.570984
14.264056 31.106777 478.667938
17.375685 30.587736 479.310333
18.303431 30.447212 481.529175
18.872320 30.453873 481.626923
19.441471 30.460554 481.724701
20.012896 30.187679 481.877167
20.582630 30.194338 481.975067
21.439886 29.924580 482.176697
22.010344 29.931223 482.274719
22.868834 29.661238 482.476593
23.440020 29.667866 482.574738
24.398520 29.517132 484.739075
24.972776 29.523781 484.837891
25.547308 29.530445 484.936768
26.124754 29.255556 485.090851
26.699898 29.262196 485.189819
27.389812 29.105833 487.332062
27.967924 29.112465 487.431427
28.549213 28.836023 487.586334
29.127951 28.842627 487.685822
29.999636 28.569262 487.890686
30.579147 28.575844 487.990295
31.288500 28.413729 490.125366
31.742262 28.305510 488.245331
32.748650 28.145370 490.432007
33.331955 28.151937 490.532440
-112.435905 44.748363 465.909882
-111.892365 44.752800 466.003601
-110.893486 44.849861 464.182068
-110.352066 44.854343 464.275452
-109.810585 44.858837 464.368866
-109.269051 44.863346 464.462280
-108.727448 44.867870 464.555695
-108.185791 44.872414 464.649109
-107.644073 44.876968 464.742554
-106.650566 44.966869 462.865784
-106.111046 44.971474 462.958954
-105.571457 44.976097 463.052124
-105.031815 44.980736 463.145294
-104.492104 44.985394 463.238495
-103.952332 44.990063 463.331696
-103.412498 44.994751 463.424896
-102.462898 44.820240 461.672089
-101.925064 44.824932 461.764801
-101.387161 44.829639 461.857544
-100.849190 44.834362 461.950256
-99.886932 44.922138 460.079193
-99.351143 44.926914 460.171661
-98.815285 44.931709 460.264130
-98.279366 44.936523 460.356628
-97.345345 45.030003 458.564209
-96.811447 45.034847 458.656219
-96.277481 45.039707 458.748230
-95.743454 45.044586 458.840271
-95.209358 45.049484 458.932281
-94.675194 45.054398 459.024323
-94.140953 45.059334 459.116364
-93.606651 45.064281 459.208435
-93.072281 45.069252 459.300476
-92.278748 44.808777 459.489197
-91.744148 44.813763 459.581299
-91.209473 44.818768 459.673401
-90.674728 44.823792 459.765533
-90.139915 44.828835 459.857666
-89.229782 44.646141 458.023621
-89.077942 44.570793 460.092651
-88.542862 44.575863 460.184814
-88.007698 44.580952 460.276978
-87.472466 44.586060 460.369171
-86.937149 44.591187 460.461365
-85.773331 44.412148 458.670807
-85.240074 44.417301 458.762634
-84.706734 44.422478 458.854492
-84.173317 44.427670 458.946381
-83.639824 44.432884 459.038239
-83.106247 44.438118 459.130127
-82.572594 44.443371 459.222046
-82.038857 44.448647 459.313934
-81.505043 44.453938 459.405853
-80.642967 44.279060 457.635468
-79.845230 44.287048 457.772949
-79.313301 44.292397 457.864594
-78.781288 44.297768 457.956268
-78.249184 44.303158 458.047943
-77.717003 44.308567 458.139648
-76.858925 44.126945 456.297089
-76.659134 44.052757 458.373627
-75.860359 44.060928 458.511261
-75.327728 44.066399 458.602997
-74.795013 44.071892 458.694763
-73.948814 43.891392 456.850433
-73.418182 43.896912 456.941925
-72.887451 43.902451 457.033447
-72.356636 43.908012 457.124969
-71.825729 43.913593 457.216492
-71.294724 43.919197 457.308044
-70.763626 43.924824 457.399597
-70.232430 43.930470 457.491150
-69.441582 43.672943 457.679077
-68.910103 43.678612 457.770691
-68.378525 43.684296 457.862305
-67.586937 43.426674 458.050354
-67.049149 43.698608 458.091431
-66.517220 43.704372 458.183105
-65.985191 43.710155 458.274780
-65.453064 43.715961 458.366486
-64.920837 43.721790 458.458191
-64.388504 43.727642 458.549927
-63.595413 43.470009 458.738251
-63.062771 43.475880 458.830017
-62.530025 43.481770 458.921814
-61.997169 43.487686 459.013641
-59.069736 43.253819 459.569672
-58.536121 43.259846 459.661591
-58.002392 43.265888 459.753510
-57.230431 43.092663 457.940094
-56.698669 43.098717 458.031525
-56.166798 43.104794 458.123016
-53.510403 42.869419 458.631348
-52.977776 42.875595 458.722931
-52.445026 42.881794 458.814514
-51.650246 42.624866 459.002777
-51.117149 42.631084 459.094452
-50.583927 42.637325 459.186096
-50.050579 42.643593 459.277802
-47.119087 42.411819 459.833374
-46.584866 42.418198 459.925171
-46.050510 42.424599 460.017029
-45.516026 42.431019 460.108887
-44.981407 42.437466 460.200745
-44.183144 42.180283 460.389648
-43.648144 42.186749 460.481598
-43.113007 42.193233 460.573547
-42.577732 42.199745 460.665527
-42.042320 42.206284 460.757538
-41.506775 42.212841 460.849548
-40.974716 41.952244 460.992737
-40.438839 41.958809 461.084808
-39.902821 41.965397 461.176910
-39.366661 41.972012 461.269012
-38.830357 41.978645 461.361145
-36.149864 41.744587 461.873444
-35.347099 41.487000 462.063202
-34.809597 41.493729 462.155518
-34.271942 41.500484 462.247864
-33.734135 41.507263 462.340240
-32.930065 41.249535 462.530273
-32.391823 41.256329 462.622711
-31.853426 41.263149 462.715179
-31.314873 41.269993 462.807648
-30.776161 41.276859 462.900146
-30.237291 41.283749 462.992676
-29.700909 41.022419 463.136780
-29.161671 41.029312 463.229370
-28.622271 41.036232 463.321991
-28.082708 41.043175 463.414642
-27.275490 40.785145 463.605255
-26.735468 40.792103 463.697968
-26.195280 40.799084 463.790710
-25.654924 40.806091 463.883484
-25.114403 40.813122 463.976288
-24.305470 40.554932 464.167236
-23.764473 40.561974 464.260101
-23.223305 40.569042 464.352997
-22.681965 40.576134 464.445923
-21.871580 40.317787 464.637177
-21.329756 40.324894 464.730164
-20.787754 40.332024 464.823212
-20.245575 40.339180 464.916260
-19.703218 40.346355 465.009338
-18.891031 40.087837 465.200928
-18.348175 40.095032 465.294098
-17.805138 40.102245 465.387299
-17.261915 40.109486 465.480499
-16.517012 40.017506 467.620422
-15.904472 39.858051 465.765717
-15.426194 39.761261 467.860413
-14.879766 39.768555 467.954346
-14.333148 39.775871 468.048279
-13.786340 39.783211 468.142242
-12.966918 39.523148 468.335632
-12.419577 39.530499 468.429657
-11.872042 39.537876 468.523743
-11.324312 39.545277 468.617859
-8.857850 39.307335 469.094269
-8.035162 39.046902 469.288300
-7.485931 39.054371 469.382660
-6.936495 39.061859 469.477051
-6.386854 39.069378 469.571472
-3.636126 38.563026 470.149536
-3.085128 38.570580 470.244202
-2.267916 38.470997 472.420837
-1.714008 38.478584 472.515900
-1.159884 38.486195 472.610962
-0.603002 38.332371 470.723389
2.447815 37.988213 473.336334
3.295335 37.877964 475.445526
3.838357 37.733234 473.628143
4.394864 37.740917 473.723633
4.951601 37.748631 473.819153
5.531372 37.633301 475.882263
6.090871 37.641026 475.978180
6.623855 37.497349 474.159332
7.181570 37.505096 474.255005
7.771541 37.388523 476.319763
8.332033 37.396286 476.415833
8.892762 37.404072 476.511963
9.415716 37.261448 474.691650
10.296640 37.147518 476.806122
10.859327 36.879101 476.956146
11.421246 36.886879 477.052460
11.983409 36.894680 477.148834
12.545818 36.902504 477.245239
13.109751 36.633842 477.395508
13.672707 36.641655 477.492004
14.235912 36.649494 477.588562
14.799367 36.657352 477.685150
17.697971 36.294895 480.288086
18.267218 36.024460 480.439697
18.834993 36.032333 480.537018
19.689068 35.765644 480.737488
20.257551 35.773518 480.834930
20.912930 35.646889 482.940430
21.484312 35.654785 483.038513
21.966734 35.518429 481.182007
22.916187 35.394520 483.338715
23.488567 35.402435 483.436951
24.350033 35.134033 483.639282
24.923147 35.141941 483.737671
25.603483 35.012203 485.873016
26.179548 35.020119 485.971771
27.046825 34.750179 486.175232
27.623644 34.758083 486.274109
28.203518 34.483986 486.428314
28.780954 34.491871 486.527313
29.770910 34.360401 488.706818
30.351473 34.368320 488.806519
30.935368 34.092690 488.961792
31.516562 34.100586 489.061584
32.524597 33.967068 491.268372
32.974075 33.836571 489.366913
33.696934 33.697781 491.524841
-111.675156 50.741737 464.876099
-111.132668 50.746765 464.969513
-110.590126 50.751808 465.062958
-110.047523 50.756866 465.156372
-109.504868 50.761944 465.249817
-108.962143 50.767036 465.343262
-107.976685 50.840034 463.525452
-107.436073 50.845177 463.618591
-106.895401 50.850334 463.711731
-106.354660 50.855511 463.804871
-105.377449 50.650936 461.984711
-104.838844 50.656143 462.077606
-104.300179 50.661366 462.170502
-103.761452 50.666607 462.263397
-103.222656 50.671867 462.356293
-102.683800 50.677143 462.449219
-102.144882 50.682442 462.542145
-101.200798 50.485668 460.790558
-100.663864 50.490971 460.883026
-100.126869 50.496288 460.975464
-99.589806 50.501625 461.067932
-99.044159 50.775970 461.109589
-98.507011 50.781376 461.202026
-97.564346 50.576618 459.385437
-97.029320 50.582054 459.477661
-96.494225 50.587509 459.569885
-95.959053 50.592987 459.662109
-95.423820 50.598480 459.754333
-94.888519 50.603996 459.846588
-94.353142 50.609531 459.938843
-93.817696 50.615089 460.031097
-93.282181 50.620667 460.123383
-90.611282 50.380558 460.635651
-90.075279 50.386230 460.727997
-89.174561 50.458302 458.932404
-89.003052 50.397640 460.912689
-88.466827 50.403378 461.005066
-87.930527 50.409138 461.097443
-87.045593 50.213848 459.350494
-83.753899 50.035625 457.932281
-83.221359 50.041489 458.023865
-82.688744 50.047375 458.115448
-82.156052 50.053284 458.207062
-81.623268 50.059212 458.298676
-81.090408 50.065166 458.390289
-80.557465 50.071140 458.481934
-79.764687 49.813400 458.669922
-78.964859 49.822411 458.807434
-78.431526 49.828445 458.899139
-77.898109 49.834503 458.990845
-77.364609 49.840584 459.082550
-76.564194 49.849751 459.220123
-76.030464 49.855888 459.311859
-75.496658 49.862049 459.403625
-74.962753 49.868237 459.495392
-74.127068 49.672283 457.724274
-73.633873 49.616650 459.775513
-72.797134 49.687870 457.953003
-72.264992 49.694145 458.044525
-71.732758 49.700443 458.136047
-70.900131 49.497120 456.294922
-70.407768 49.450050 458.415527
-69.875160 49.456402 458.507111
-69.342445 49.462772 458.598724
-68.809647 49.469173 458.690338
-67.988838 49.266972 456.847412
-67.458092 49.273399 456.938751
-64.542709 49.043678 457.491882
-64.011261 49.050232 457.583313
-63.479706 49.056812 457.674744
-62.948048 49.063416 457.766205
-62.416283 49.070045 457.857697
-61.884411 49.076698 457.949188
-61.352428 49.083378 458.040680
-58.429558 48.854595 458.594940
-57.896812 48.861404 458.686554
-57.368851 48.602154 458.828949
-56.835831 48.608974 458.920593
-56.302696 48.615822 459.012268
-55.769447 48.622696 459.103973
-53.105957 48.391029 459.613525
-52.571945 48.398018 459.705322
-52.037811 48.405033 459.797150
-51.240761 48.149017 459.985840
-50.706276 48.156059 460.077698
-50.171661 48.163128 460.169586
-49.373734 47.907017 460.358459
-48.834579 48.180916 460.399384
-48.299522 48.188076 460.491333
-47.764336 48.195263 460.583313
-47.033108 48.002525 458.764343
-46.697567 47.942757 460.818390
-46.161942 47.949982 460.910400
-45.626186 47.957237 461.002472
-45.090298 47.964516 461.094543
-44.369389 47.772758 459.272858
-43.753727 47.715611 461.375977
-43.217316 47.722942 461.468109
-42.680771 47.730305 461.560303
-42.144081 47.737690 461.652466
-41.434536 47.546902 459.827881
-40.899788 47.554295 459.919586
-40.536659 47.492504 461.980438
-39.999363 47.499954 462.072723
-39.461926 47.507435 462.165009
-38.762699 47.317623 460.337738
-38.120968 47.258518 462.447235
-37.582973 47.266048 462.539612
-37.044834 47.273605 462.632019
-36.506546 47.281193 462.724457
-35.818687 47.092350 460.894226
-35.282330 47.099945 460.986176
-34.893780 47.036083 463.053345
-34.354843 47.043736 463.145874
-33.815754 47.051411 463.238403
-33.138222 46.863548 461.405487
-32.470146 46.802464 463.521423
-31.930466 46.810192 463.614075
-31.390629 46.817951 463.706757
-30.850634 46.825733 463.799438
-30.184467 46.638840 461.963562
-29.502485 46.576771 464.082886
-28.961882 46.584606 464.175690
-28.421116 46.592468 464.268494
-27.880186 46.600357 464.361328
-27.225389 46.414429 462.522491
-24.530746 46.186321 463.036102
-24.093155 46.118244 465.115448
-23.550785 46.126263 465.208527
-23.008244 46.134308 465.301605
-22.465528 46.142380 465.394714
-21.922640 46.150482 465.487823
-19.208830 45.652287 466.057892
-18.664776 45.660458 466.151215
-17.849886 45.403030 466.343292
-17.305325 45.411224 466.436676
-16.760580 45.419441 466.530121
-16.215651 45.427689 466.623596
-13.762319 45.195000 467.096680
-12.998888 45.126698 469.259064
-12.397972 44.945621 467.383057
-11.851424 44.953991 467.476776
-11.304680 44.962387 467.570526
-10.529274 44.892910 469.734802
-9.979681 44.901348 469.828918
-9.430687 44.638020 469.975708
-8.880645 44.646465 470.069916
-8.330402 44.654938 470.164185
-7.779957 44.663441 470.258453
-6.954484 44.404167 470.452606
-6.403478 44.412685 470.546997
-5.852266 44.421234 470.641388
-5.300846 44.429806 470.735809
-4.749599 44.166084 470.883057
-4.197711 44.174660 470.977570
-3.645613 44.183266 471.072113
-3.093302 44.191898 471.166687
-2.264596 43.932293 471.361481
-1.711702 43.940941 471.456146
-1.158591 43.949615 471.550873
-0.605264 43.958317 471.645599
0.226111 43.875225 473.748535
0.782389 43.609879 473.896820
1.338825 43.618595 473.992004
1.895483 43.627342 474.087250
2.452364 43.636112 474.182495
3.288450 43.374947 474.378693
3.845947 43.383732 474.474060
4.403671 43.392548 474.569458
4.961624 43.401386 474.664886
5.519806 43.410255 474.760376
8.632564 42.813656 477.443909
9.194773 42.822571 477.540039
9.716402 42.652317 475.637970
10.276737 42.661251 475.733795
13.421605 42.336800 478.370239
13.987320 42.068958 478.520721
14.552007 42.077953 478.617279
15.116944 42.086975 478.713867
15.682133 42.096024 478.810516
16.247574 42.105103 478.907196
19.446205 41.490696 481.549316
20.302603 41.225555 481.750122
20.872631 41.234653 481.847748
21.442924 41.243778 481.945374
22.105768 41.141727 484.072693
22.678982 41.150867 484.170685
23.157606 40.992126 482.293213
23.828484 40.888794 484.421753
24.402561 40.897953 484.519897
24.979294 40.626534 484.673065
25.553970 40.635681 484.771332
26.526321 40.532589 486.943451
26.994452 40.377792 485.072205
27.973936 40.273472 487.246094
28.552462 40.282677 487.345154
29.423592 40.014153 487.549133
30.002880 40.023354 487.648346
30.710394 39.912502 489.796753
31.292673 39.921719 489.896332
32.169724 39.651680 490.101532
32.752785 39.660892 490.201263
33.339344 39.386044 490.356812
33.923046 39.395245 490.456665
-111.377007 56.670879 465.751587
-110.833336 56.676498 465.845032
-110.289597 56.682137 465.938507
-109.299294 56.732883 464.123810
-108.757660 56.738571 464.216949
-108.215965 56.744274 464.310120
-107.674210 56.750000 464.403259
-107.132393 56.755745 464.496429
-106.590508 56.761509 464.589600
-105.624992 56.540562 462.826782
-105.085159 56.546349 462.919647
-104.545265 56.552158 463.012512
-104.005302 56.557987 463.105408
-103.465279 56.563835 463.198273
-102.925186 56.569706 463.291168
-102.385033 56.575600 463.384064
-101.425346 56.348469 461.568054
-100.887306 56.354389 461.660706
-100.349197 56.360336 461.753357
-99.802727 56.635506 461.795227
-98.868263 56.415405 460.044006
-98.332130 56.421406 460.136200
-97.795921 56.427425 460.228363
-97.259651 56.433468 460.320557
-96.723305 56.439529 460.412750
-96.186890 56.445614 460.504944
-95.650406 56.451721 460.597137
-95.121765 56.189503 460.740143
-94.585098 56.195625 460.832367
-94.048355 56.201771 460.924622
-93.511536 56.207939 461.016876
-92.974655 56.214130 461.109131
-92.169189 56.223461 461.247528
-91.632118 56.229713 461.339813
-91.094971 56.235985 461.432098
-90.183395 56.009781 459.616516
-89.648354 56.016090 459.708557
-89.113228 56.022423 459.800629
-88.578026 56.028778 459.892700
-88.042747 56.035156 459.984772
-87.507401 56.041557 460.076843
-86.971962 56.047989 460.168945
-86.436455 56.054440 460.261047
-85.900864 56.060913 460.353149
-85.024734 55.843803 458.608887
-84.491104 55.850285 458.700531
-83.957382 55.856792 458.792175
-83.423592 55.863327 458.883850
-82.889709 55.869884 458.975525
-82.355751 55.876465 459.067200
-81.561394 55.619446 459.255402
-81.027184 55.626060 459.347107
-80.492882 55.632698 459.438843
-79.958496 55.639362 459.530579
-77.285286 55.673061 459.989380
-76.429634 55.447186 458.158478
-75.896881 55.454002 458.249908
-75.364029 55.460846 458.341370
-75.151321 55.433121 460.407471
-74.616013 55.440010 460.499329
-73.771019 55.215206 458.666351
-73.237762 55.222118 458.757843
-72.704407 55.229061 458.849365
-72.170959 55.236027 458.940887
-71.637421 55.243019 459.032440
-71.103790 55.250038 459.123993
-70.570061 55.257088 459.215546
-70.036232 55.264160 459.307129
-69.220520 55.047173 457.536163
-68.973953 55.011726 459.541016
-68.439789 55.018845 459.632660
-67.905525 55.025993 459.724274
-67.109459 54.769947 459.912537
-66.299583 54.820869 458.089081
-65.767143 54.828091 458.180481
-65.234596 54.835342 458.271881
-64.701950 54.842617 458.363281
-64.169189 54.849922 458.454712
-63.375084 54.594975 458.642578
-62.842022 54.602314 458.734039
-62.308853 54.609680 458.825531
-61.775574 54.617073 458.917023
-61.242188 54.624496 459.008545
-58.311394 54.399487 459.562958
-57.777241 54.407055 459.654572
-57.242970 54.414650 459.746185
-56.713261 54.155792 459.888733
-56.178715 54.163410 459.980408
-55.644051 54.171055 460.072113
-52.479408 53.985382 458.637665
-51.902348 53.958523 460.765411
-51.366676 53.966358 460.857239
-50.830875 53.974228 460.949097
-50.294952 53.982124 461.040955
-49.549473 53.762810 459.191956
-46.882504 53.536636 459.701050
-46.347900 53.544678 459.792755
-45.741974 53.515701 461.924896
-45.204723 53.523800 462.016968
-44.667343 53.531925 462.109039
-43.944176 53.314838 460.256653
-43.326878 53.284771 462.390594
-42.788971 53.292961 462.482727
-42.250927 53.301178 462.574921
-41.712746 53.309429 462.667084
-41.001244 53.093456 460.812958
-40.465054 53.101742 460.904907
-40.100666 53.066471 462.995178
-39.561871 53.074799 463.087463
-39.022930 53.083157 463.179749
-38.322021 52.868294 461.324005
-37.678066 52.836075 463.462067
-37.138569 52.844498 463.554443
-36.598923 52.852947 463.646851
-36.059128 52.861427 463.739288
-35.369862 52.647675 461.881805
-34.711857 52.614384 464.022003
-34.171490 52.622929 464.114502
-33.630962 52.631500 464.207062
-33.090286 52.640106 464.299591
-32.281654 52.384460 464.490143
-31.740540 52.393097 464.582764
-31.199266 52.401764 464.675385
-30.657837 52.410461 464.768066
-29.989695 52.198921 462.907379
-29.305988 52.163448 465.051575
-28.763948 52.172211 465.144348
-28.221745 52.181004 465.237122
-27.679377 52.189823 465.329926
-27.022840 51.979385 463.467499
-24.425713 51.704689 465.991089
-23.882074 51.713634 466.084076
-23.338264 51.722610 466.177124
-22.794281 51.731621 466.270172
-22.250124 51.740658 466.363251
-21.614645 51.532421 464.497620
-18.711876 51.260311 467.073059
-18.166286 51.269489 467.166351
-17.621971 51.008617 467.311859
-17.075970 51.017807 467.405212
-16.529781 51.027027 467.498596
-15.983407 51.036278 467.592010
-12.977105 50.546619 468.210968
-12.429403 50.555973 468.304596
-11.881506 50.565357 468.398254
-11.333414 50.574772 468.491943
-10.785126 50.584221 468.585632
-8.041997 50.089767 469.159637
-7.492416 50.099300 469.253571
-6.971291 50.039391 471.300415
-6.419026 50.048962 471.394714
-5.866555 50.058567 471.489044
-5.292453 49.866344 469.682159
-4.466052 50.152279 469.770691
-1.439451 49.317680 472.403503
-0.884929 49.327408 472.498169
-0.330190 49.337162 472.592865
0.224768 49.346951 472.687592
3.016102 49.054413 475.254120
3.574826 49.064316 475.349487
4.134190 48.799465 475.498291
4.693419 48.809376 475.593719
5.252877 48.819317 475.689178
8.335618 48.324009 476.322052
9.215386 48.258472 478.450806
9.779148 48.268547 478.547150
10.301389 48.083717 476.710907
10.863353 48.093800 476.806793
13.734834 47.785809 479.330536
14.585012 47.523918 479.529633
15.151262 47.534107 479.626373
15.717763 47.544327 479.723145
18.633553 47.233261 482.284149
19.125652 47.050797 480.413116
19.776566 46.974907 482.533356
20.347603 46.985218 482.630768
20.918901 46.995560 482.728210
21.492453 46.726700 482.880310
22.064337 46.737038 482.977875
23.017937 46.662022 485.142365
23.497383 46.483532 483.276611
24.458050 46.407333 485.442841
25.033720 46.417755 485.541199
25.609665 46.428207 485.639557
26.188307 46.157684 485.792938
26.764856 46.168137 485.891418
27.455906 46.084911 488.030243
28.035416 46.095387 488.129089
28.907892 45.828636 488.332855
29.488161 45.839123 488.431854
30.071512 45.566948 488.586334
30.652405 45.577431 488.685425
31.527218 45.310307 488.889679
32.108883 45.320797 488.988922
32.824177 45.227764 491.093048
33.408794 45.238281 491.192719
33.996883 44.964455 491.348328
34.582142 44.974968 491.448120
-110.369797 62.383923 464.818146
-109.818123 62.661396 464.860260
-109.275368 62.667667 464.953461
-108.732544 62.673962 465.046631
-108.189659 62.680275 465.139832
-107.646713 62.686607 465.233032
-107.103699 62.692966 465.326263
