# This PCD file was generated using the MATLAB® pcwrite function
# from Computer Vision Toolbox®.
# .PCD v.7 - Point Cloud Data file format
VERSION .7
FIELDS x y z
SIZE 4 4 4
TYPE F F F
COUNT 1 1 1
WIDTH 1489
HEIGHT 1
VIEWPOINT 0 0 0 1 0 0 0
POINTS 1489
DATA ascii
0.757918 46.872185 459.358521
0.757690 47.403145 459.255890
0.757462 47.933945 459.153290
0.757233 48.464584 459.050720
0.757003 48.995068 458.948151
0.756773 49.525391 458.845642
0.756542 50.055557 458.743164
1.292146 55.624313 457.761658
1.293776 52.979424 458.273041
1.293451 53.508701 458.170715
1.293125 54.037827 458.068390
1.292799 54.566803 457.966125
1.292473 55.095634 457.863892
1.559402 58.271435 457.297333
1.559030 58.799305 457.195282
1.834589 50.340973 458.878387
1.827518 59.333035 457.139557
1.827102 59.860676 457.037537
1.826686 60.388172 456.935516
1.826270 60.915535 456.833557
1.825854 61.442757 456.731598
1.825438 61.969845 456.629669
1.825022 62.496792 456.527771
1.824606 63.023605 456.425903
1.824190 63.550285 456.324066
2.092304 64.083321 456.268402
2.091846 64.609779 456.166595
2.091388 65.136116 456.064819
2.090930 65.662315 455.963043
2.358889 66.195091 455.907410
2.358390 66.721085 455.805695
2.357891 67.246948 455.703979
2.357392 67.772682 455.602295
-22.644279 -52.217209 474.373108
-22.360859 -51.648994 474.313354
-20.945667 -48.811825 474.015045
-20.663010 -48.245163 473.955475
-19.262644 -46.555340 473.876251
-19.257103 -45.985321 473.767090
-18.975092 -45.419872 473.707611
-18.693199 -44.854671 473.648193
-18.411430 -44.289719 473.588776
-18.129782 -43.725010 473.529419
-17.848249 -43.160545 473.470062
-17.843184 -42.592339 473.361145
-17.561863 -42.028404 473.301849
-17.280659 -41.464710 473.242584
-17.275787 -40.897419 473.133820
-17.270931 -40.330467 473.025146
-15.867545 -37.518375 472.729584
-15.863145 -36.953163 472.621155
-15.582897 -36.391716 472.562134
-15.578597 -35.827110 472.453796
-15.298547 -35.266163 472.394867
-15.294347 -34.702160 472.286621
-15.290159 -34.138481 472.178436
-15.285984 -33.575130 472.070313
-15.277670 -32.449394 471.854248
-15.006303 -33.015221 472.011505
-13.883059 -29.935329 471.614746
-13.879337 -29.374104 471.506958
-13.875627 -28.813194 471.399231
-13.596777 -28.255281 471.340668
-13.593161 -27.694941 471.233032
-13.589557 -27.134912 471.125458
-13.310975 -26.577721 471.066986
-12.466076 -23.232159 470.569702
-12.462840 -22.674358 470.462494
-12.459614 -22.116861 470.355347
-12.181841 -21.561716 470.297119
-12.178705 -21.004761 470.190063
-12.175579 -20.448103 470.083038
-11.933697 -26.310518 471.258575
-11.898063 -19.893637 470.024902
-11.620643 -19.339359 469.966797
-11.617685 -18.783476 469.859894
-11.614736 -18.227882 469.753052
-11.337568 -17.674271 469.695038
-11.334706 -17.119204 469.588287
-11.331854 -16.564426 469.481567
-11.329011 -16.009935 469.374939
-11.052169 -15.457208 469.317017
-11.049412 -14.903234 469.210449
-11.046664 -14.349544 469.103943
-11.043925 -13.796136 468.997498
-10.208393 -10.760461 468.558472
-10.205910 -10.208698 468.452271
-10.203436 -9.657210 468.346161
-10.200970 -9.105993 468.240082
-10.198512 -8.555048 468.134033
-10.196063 -8.004373 468.028076
-9.647063 -7.455382 468.018951
-9.644760 -6.905136 467.913025
-9.642465 -6.355157 467.807159
-9.640178 -5.805443 467.701324
-9.637899 -5.255993 467.595551
-9.362592 -4.707249 467.538147
-9.360392 -4.158270 467.432434
-9.358201 -3.609553 467.326813
-9.356017 -3.061094 467.221222
-9.353840 -2.512894 467.115662
-9.078902 -1.965129 467.058380
-9.076804 -1.417389 466.952911
-9.074713 -0.869903 466.847473
-9.072630 -0.322672 466.742096
-8.797983 0.224342 466.684906
-8.795977 0.771123 466.579590
-8.793978 1.317653 466.474335
-8.791986 1.863934 466.369141
-8.790002 2.409968 466.263977
-8.788025 2.955754 466.158844
-8.786056 3.501295 466.053772
-8.240575 3.774734 466.097290
-8.238738 4.320014 465.992249
-8.236907 4.865052 465.887238
-8.235084 5.409847 465.782288
-8.233267 5.954403 465.677399
-8.231458 6.498718 465.572510
-7.957690 7.043494 465.515594
-7.955954 7.587387 465.410797
-7.954224 8.131044 465.306061
-7.952500 8.674465 465.201355
-7.679005 9.218564 465.144531
-7.677354 9.761572 465.039886
-7.675710 10.304348 464.935303
-7.674071 10.846894 464.830750
-7.672439 11.389211 464.726227
-7.670814 11.931299 464.621765
-7.669195 12.473160 464.517365
-7.667582 13.014794 464.412964
-7.664375 14.097390 464.204346
-7.394612 13.557537 464.356293
-7.391533 14.639792 464.147736
-7.390002 15.180586 464.043488
-7.388478 15.721159 463.939301
-7.386960 16.261513 463.835144
-7.114375 16.803299 463.778595
-7.112926 17.343269 463.674530
-7.111482 17.883024 463.570465
-7.110044 18.422564 463.466461
-7.108613 18.961887 463.362518
-7.107187 19.500999 463.258575
-6.834978 20.041866 463.202148
-6.833619 20.580608 463.098267
-6.832266 21.119141 462.994446
-6.830918 21.657463 462.890686
-6.829577 22.195580 462.786926
-6.822952 24.883080 462.268768
-6.557675 22.735718 462.730560
-6.556399 23.273474 462.626892
-6.555128 23.811024 462.523224
-6.553863 24.348372 462.419617
-6.551349 25.422461 462.212524
-6.550101 25.959204 462.109009
-6.548857 26.495749 462.005554
-6.547619 27.032095 461.902130
-6.276253 27.570946 461.845947
-6.275079 28.106951 461.742584
-6.273910 28.642759 461.639252
-6.272746 29.178375 461.535950
-6.271587 29.713799 461.432678
-6.270434 30.249029 461.329468
-5.999415 30.787086 461.273346
-5.998323 31.321987 461.170197
-5.997237 31.856701 461.067047
-5.996155 32.391224 460.963959
-5.995079 32.925564 460.860901
-5.994008 33.459717 460.757874
-5.992941 33.993683 460.654877
-5.991880 34.527466 460.551910
-5.721310 35.064499 460.495941
-5.720309 35.597973 460.393005
-5.719313 36.131260 460.290161
-5.718321 36.664371 460.187317
-5.717334 37.197300 460.084503
-5.447038 37.733749 460.028564
-5.446110 38.266376 459.925812
-5.445187 38.798828 459.823090
-5.444268 39.331104 459.720398
-5.443354 39.863209 459.617737
-5.442444 40.395138 459.515106
-5.172468 40.930904 459.459259
-5.171616 41.462540 459.356689
-5.170768 41.994007 459.254120
-4.900948 42.529476 459.198303
-4.900157 43.060658 459.095825
-4.899370 43.591675 458.993347
-4.629703 44.126854 458.937561
-4.628972 44.657585 458.835114
-4.628245 45.188156 458.732727
-4.627521 45.718559 458.630371
-4.626802 46.248802 458.528015
-4.357387 46.783482 458.472290
-4.356722 47.313454 458.369995
-4.356062 47.843266 458.267731
-4.355405 48.372917 458.165497
-4.086186 48.907219 458.109802
-4.085582 49.436607 458.007629
-4.084982 49.965839 457.905457
-4.084386 50.494919 457.803314
-4.083794 51.023842 457.701233
-4.083204 51.552612 457.599152
-3.814276 52.086353 457.543518
-3.813739 52.614868 457.441467
-3.813205 53.143234 457.339478
-3.812675 53.671452 457.237488
-3.812149 54.199520 457.135559
-3.543455 54.732822 457.079956
-3.542979 55.260647 456.978027
-3.542507 55.788322 456.876160
-3.542037 56.315853 456.774292
-3.541571 56.843243 456.672485
-3.541109 57.370483 456.570679
-3.272690 57.903286 456.515106
-3.272277 58.430294 456.413361
-3.271867 58.957161 456.311615
-3.271460 59.483887 456.209900
-3.271056 60.010475 456.108215
-3.270655 60.536926 456.006561
-3.270257 61.063236 455.904938
-3.269862 61.589409 455.803345
-3.269470 62.115448 455.701752
-3.001456 62.647518 455.646271
-3.001111 63.173340 455.544739
-3.000770 63.699024 455.443207
-3.000432 64.224579 455.341705
-3.000096 64.749992 455.240234
-2.999763 65.275284 455.138794
-2.999433 65.800446 455.037384
-2.731720 66.332008 454.981934
-2.731436 66.856956 454.880554
-2.731156 67.381783 454.779175
-2.730877 67.906471 454.677856
-2.730602 68.431046 454.576538
-27.627731 -52.705170 473.587311
-27.619638 -52.132839 473.478149
-26.208496 -49.869202 473.289948
-25.075478 -47.605114 473.052521
-25.068274 -47.035522 472.943756
-23.658737 -44.496639 472.702087
-23.376490 -43.932663 472.642944
-23.094364 -43.368931 472.583832
-23.087839 -42.801575 472.475342
-22.805935 -42.238377 472.416321
-22.524153 -41.675426 472.357300
-22.517834 -41.108986 472.248962
-22.236267 -40.546562 472.190002
-22.230059 -39.980747 472.081757
-22.223869 -39.415268 471.973572
-21.942610 -38.853649 471.914734
-21.936527 -38.288788 471.806641
-20.529661 -35.203960 471.459015
-20.524059 -34.640976 471.351227
-20.243734 -34.081429 471.292603
-20.238239 -33.519043 471.184906
-20.232759 -32.956978 471.077240
-19.952726 -32.398193 471.018738
-19.947351 -31.836720 470.911194
-19.103098 -29.602119 470.628479
-19.098017 -29.042068 470.521149
-19.092949 -28.482332 470.413879
-18.813713 -27.925467 470.355591
-18.534588 -27.368811 470.297333
-18.529709 -26.809900 470.190186
-18.524843 -26.251299 470.083099
-18.519995 -25.693005 469.976074
-18.515160 -25.135015 469.869110
-17.672600 -22.634041 469.534637
-17.668053 -22.077555 469.427917
-17.389900 -21.523346 469.369934
-17.385450 -20.967402 469.263306
-17.381014 -20.411755 469.156708
-17.103130 -19.858227 469.098816
-17.098791 -19.303114 468.992340
-16.818968 -18.472691 468.881287
-16.814730 -17.918255 468.774902
-16.537252 -17.365704 468.717133
-16.533108 -16.811792 468.610809
-16.528976 -16.258165 468.504578
-16.251760 -15.706270 468.446869
-16.247723 -15.153162 468.340698
-16.243696 -14.600338 468.234589
-16.239683 -14.047795 468.128540
-16.235683 -13.495532 468.022522
-16.231697 -12.943550 467.916565
-15.682180 -12.394119 467.907440
-15.678351 -11.842588 467.801544
-15.674533 -11.291333 467.695709
-15.670728 -10.740353 467.589905
-15.666935 -10.189646 467.484161
-15.390638 -9.640093 467.426758
-15.386935 -9.089879 467.321106
-15.383244 -8.539934 467.215485
-15.379565 -7.990259 467.109924
-15.103591 -7.441527 467.052612
-14.827709 -6.892960 466.995331
-14.824194 -6.343981 466.889862
-14.820691 -5.795267 466.784454
-14.817199 -5.246815 466.679108
-14.813719 -4.698626 466.573792
-14.538229 -4.151066 466.516632
-14.534835 -3.603346 466.411377
-14.531453 -3.055884 466.306213
-14.528082 -2.508680 466.201050
-14.524723 -1.961732 466.095947
-14.521375 -1.415039 465.990906
-13.976203 -1.141960 466.034424
-13.972996 -0.595544 465.929413
-13.969800 -0.049381 465.824432
-13.966615 0.496531 465.719513
-13.963441 1.042193 465.614624
-13.960277 1.587607 465.509796
-13.957125 2.132772 465.404999
-13.953983 2.677691 465.300262
-13.679520 3.222690 465.243408
-13.676460 3.767171 465.138733
-13.402151 4.311836 465.081940
-13.399173 4.855883 464.977325
-13.396206 5.399689 464.872772
-13.393249 5.943255 464.768280
-13.390302 6.486583 464.663788
-13.387366 7.029673 464.559357
-13.384440 7.572527 464.454987
-13.381525 8.115146 464.350647
-13.107786 8.658367 464.294037
-13.104950 9.200569 464.189758
-12.829979 10.014404 464.081055
-12.827226 10.556080 463.976868
-12.824484 11.097527 463.872742
-12.821751 11.638745 463.768616
-12.819029 12.179737 463.664581
-12.816316 12.720503 463.560547
-12.813613 13.261044 463.456573
-12.810920 13.801362 463.352661
-12.808236 14.341457 463.248749
-12.805563 14.881330 463.144897
-12.532689 15.422459 463.088531
-12.530091 15.961944 462.984741
-12.527504 16.501209 462.881012
-12.524925 17.040260 462.777283
-12.252322 17.580772 462.720978
-12.249819 18.119444 462.617340
-12.247325 18.657898 462.513733
-12.244840 19.196140 462.410156
-12.242365 19.734171 462.306641
-12.239899 20.271992 462.203156
-11.967690 20.811588 462.146942
-11.965298 21.349041 462.043518
-11.962914 21.886286 461.940125
-11.960540 22.423325 461.836761
-11.958174 22.960157 461.733459
-11.686289 23.499027 461.677338
-11.683995 24.035505 461.574066
-11.681710 24.571779 461.470856
-11.679434 25.107853 461.367676
-11.677167 25.643724 461.264526
-11.674909 26.179399 461.161407
-11.672660 26.714874 461.058319
-11.670419 27.250153 460.955292
-11.668187 27.785236 460.852295
-11.396864 28.322821 460.796326
-11.394702 28.857567 460.693390
-11.392548 29.392117 460.590454
-11.390403 29.926477 460.487579
-11.388266 30.460646 460.384735
-11.386138 30.994625 460.281952
-11.115180 31.531418 460.226074
-11.113121 32.065071 460.123322
-11.111069 32.598537 460.020599
-11.109026 33.131817 459.917908
-11.106991 33.664909 459.815247
-11.104964 34.197823 459.712616
-11.102945 34.730553 459.610046
-11.100935 35.263100 459.507477
-10.830450 35.798874 459.451721
-10.828506 36.331108 459.349213
-10.826570 36.863167 459.246765
-10.824642 37.395046 459.144318
-10.822722 37.926750 459.041901
-10.820810 38.458279 458.939545
-10.550670 38.993340 458.883850
-10.548823 39.524570 458.781525
-10.546983 40.055622 458.679230
-10.545151 40.586506 458.576965
-10.543327 41.117222 458.474731
-10.005378 41.655701 458.465698
-10.003665 42.186172 458.363495
-10.001960 42.716476 458.261322
-10.000262 43.246616 458.159180
-9.998571 43.776585 458.057068
-9.996887 44.306393 457.954987
-9.727357 44.840309 457.899414
-9.725735 45.369839 457.797394
-9.724120 45.899204 457.695374
-9.722513 46.428406 457.593414
-9.181690 48.288582 457.329468
-9.180206 48.817169 457.227570
-9.178729 49.345600 457.125732
-9.177259 49.873875 457.023895
-9.175795 50.401997 456.922119
-9.174338 50.929962 456.820343
-9.172887 51.457775 456.718628
-9.170006 52.512947 456.515228
-8.897164 54.626713 456.154968
-8.904062 51.990406 456.663177
-8.901283 53.045376 456.459808
-8.899904 53.572636 456.358154
-8.898531 54.099747 456.256561
-8.650455 46.710823 457.728149
-8.628640 55.158806 456.099579
-8.627330 55.685524 455.998016
-8.626026 56.212101 455.896484
-8.624728 56.738533 455.795013
-8.623437 57.264820 455.693542
-8.350248 59.899876 455.232605
-8.349036 60.425369 455.131256
-8.347829 60.950729 455.029968
-8.346629 61.475952 454.928680
-8.345434 62.001038 454.827423
-8.077584 62.531975 454.772125
-8.076444 63.056843 454.670898
-8.075308 63.581573 454.569702
-8.074179 64.106178 454.468536
-8.073055 64.630646 454.367401
-8.071937 65.154984 454.266266
-7.804362 65.685486 454.211029
-7.803296 66.209610 454.109924
-7.802235 66.733612 454.008850
-7.801180 67.257484 453.907806
-7.800131 67.781227 453.806793
-7.799087 68.304848 453.705811
-7.798048 68.828339 453.604828
-7.530786 69.358360 453.549622
-33.435211 -53.752888 472.764130
-33.425415 -53.180916 472.655334
-32.295818 -51.484722 472.527069
-30.883587 -49.225056 472.339844
-30.599669 -48.659691 472.280731
-30.315886 -48.094585 472.221649
-30.307194 -47.525631 472.113220
-30.023643 -46.961086 472.054230
-30.015076 -46.392780 471.945923
-29.731760 -45.828789 471.886963
-29.723314 -45.261127 471.778778
-28.321142 -43.295826 471.646637
-28.313177 -42.729458 471.538605
-28.030695 -42.167110 471.479828
-27.748341 -41.605007 471.421082
-27.740591 -41.039562 471.313171
-27.458462 -40.477989 471.254486
-27.176458 -39.916656 471.195831
-27.168922 -39.352116 471.088074
-27.161407 -38.787910 470.980377
-27.153913 -38.224033 470.872711
-27.146442 -37.660492 470.765137
-26.021194 -35.422024 470.531311
-26.014120 -34.859917 470.423950
-25.733208 -34.301147 470.365601
-25.452415 -33.742607 470.307251
-25.445545 -33.181370 470.200012
-25.164967 -32.623325 470.141724
-25.158209 -32.062675 470.034576
-25.151470 -31.502344 469.927490
-24.298117 -28.713013 469.539215
-24.291706 -28.154413 469.432404
-24.012051 -27.598564 469.374390
-24.005749 -27.040533 469.267670
-23.974524 -24.254972 468.734924
-23.779684 -31.236120 470.118317
-23.726295 -26.485153 469.209686
-23.720102 -25.927687 469.103058
-23.713926 -25.370523 468.996490
-23.707769 -24.813665 468.889984
-22.577692 -21.208906 468.393005
-22.571945 -20.654087 468.286804
-22.566217 -20.099564 468.180664
-22.560507 -19.545332 468.074554
-22.282345 -18.993073 468.016968
-22.276735 -18.439373 467.910980
-21.998766 -17.887545 467.853424
-21.993259 -17.334372 467.747528
-21.987768 -16.781485 467.641632
-21.710073 -16.230318 467.584198
-21.704683 -15.677952 467.478394
-21.699310 -15.125869 467.372681
-21.421885 -14.575354 467.315277
-21.416613 -14.023783 467.209625
-21.411354 -13.472492 467.104034
-21.406115 -12.921480 466.998474
-21.400892 -12.370745 466.892975
-20.852064 -11.822364 466.883942
-20.847004 -11.272080 466.778503
-20.841961 -10.722070 466.673126
-20.836931 -10.172332 466.567780
-20.831919 -9.622866 466.462494
-20.555368 -9.074462 466.405365
-20.550451 -8.525486 466.300140
-20.545551 -7.976777 466.194977
-20.540667 -7.428335 466.089844
-20.264454 -6.880753 466.032837
-19.967257 -3.870529 465.503632
-19.985979 -6.059431 465.923309
-19.981276 -5.511814 465.818298
-19.976587 -4.964459 465.713379
-19.971914 -4.417364 465.608490
-19.673418 -1.140276 465.027954
-19.691587 -3.324224 465.446747
-19.687021 -2.777854 465.341980
-19.682472 -2.231741 465.237244
-19.677938 -1.685881 465.132568
-19.176342 -6.609031 466.172485
-19.107801 1.856470 464.548767
-19.103498 2.400554 464.444397
-19.099213 2.944393 464.340057
-19.094938 3.487989 464.235779
-19.090679 4.031341 464.131531
-18.816154 4.574898 464.074982
-18.587708 -0.867768 465.167023
-18.541718 5.118313 464.018433
-18.537622 5.661042 463.914276
-18.533539 6.203534 463.810181
-18.529470 6.745788 463.706116
-18.525415 7.287806 463.602081
-18.521376 7.829588 463.498108
-18.517347 8.371137 463.394165
-18.513334 8.912454 463.290283
-18.509335 9.453538 463.186432
-18.235565 9.995333 463.130096
-18.231651 10.536007 463.026306
-18.227753 11.076452 462.922577
-18.223866 11.616671 462.818848
-18.219992 12.156663 462.715210
-17.946590 12.697618 462.658966
-17.942801 13.237210 462.555359
-17.939026 13.776580 462.451782
-17.935263 14.315727 462.348267
-17.931513 14.854654 462.244812
-17.927776 15.393362 462.141357
-17.640268 18.085323 461.671967
-17.367649 18.624516 461.615906
-17.364117 19.161814 461.512726
-17.360596 19.698900 461.409546
-17.357086 20.235779 461.306427
-17.353592 20.772446 461.203339
-17.081318 21.310884 461.147369
-17.077902 21.847187 461.044342
-17.074497 22.383284 460.941345
-17.071108 22.919176 460.838409
-17.067730 23.454865 460.735474
-17.064363 23.990351 460.632599
-17.061008 24.525637 460.529755
-17.057669 25.060720 460.426971
-17.054338 25.595606 460.324188
-17.049370 26.397560 460.170105
-16.777794 26.934443 460.114319
-16.774561 27.468687 460.011658
-16.771338 28.002735 459.909027
-16.768129 28.536591 459.806427
-16.764933 29.070253 459.703888
-16.493683 29.606461 459.648163
-16.490561 30.139790 459.545654
-16.487450 30.672930 459.443176
-16.484352 31.205879 459.340759
-16.481266 31.738642 459.238342
-16.478191 32.271217 459.135986
-16.475128 32.803608 459.033630
-16.472076 33.335812 458.931335
-16.201334 33.870964 458.875732
-16.198357 34.402851 458.773499
-16.195391 34.934559 458.671265
-16.192434 35.466084 458.569092
-16.189491 35.997429 458.466919
-16.186560 36.528595 458.364807
-15.916187 37.063007 458.309296
-15.913327 37.593868 458.207214
-15.910478 38.124554 458.105164
-15.907641 38.655064 458.003174
-15.904814 39.185398 457.901184
-15.901999 39.715561 457.799225
-15.631988 40.249271 457.743774
-15.629243 40.779140 457.641876
-15.626509 41.308838 457.540009
-15.623786 41.838367 457.438171
-15.621073 42.367729 457.336365
-15.084297 42.904861 457.327362
-15.081700 43.433987 457.225586
-15.079115 43.962944 457.123810
-15.076539 44.491737 457.022095
-15.073975 45.020370 456.920380
-14.804548 45.553059 456.865051
-14.802050 46.081413 456.763397
-14.799563 46.609608 456.661743
-14.797086 47.137642 456.560150
-14.527884 47.669937 456.504852
-14.258738 48.202175 456.449524
-14.256383 48.729836 456.347992
-14.254037 49.257336 456.246460
-14.251701 49.784683 456.144989
-14.249375 50.311874 456.043518
-14.247059 50.838913 455.942078
-14.244752 51.365799 455.840668
-14.242455 51.892532 455.739288
-14.240168 52.419117 455.637939
-13.971513 52.950466 455.582733
-13.969290 53.476799 455.481415
-13.967075 54.002983 455.380127
-13.964870 54.529022 455.278870
-13.962674 55.054913 455.177643
-13.960488 55.580658 455.076416
-13.692151 56.111469 455.021240
-13.690027 56.636978 454.920074
-13.687912 57.162338 454.818939
-13.685806 57.687561 454.717804
-13.683709 58.212639 454.616730
-13.681621 58.737579 454.515656
-13.413593 59.267887 454.460510
-13.411566 59.792595 454.359467
-13.409548 60.317165 454.258453
-13.407538 60.841599 454.157471
-13.405538 61.365898 454.056519
-13.403546 61.890060 453.955597
-13.401562 62.414089 453.854675
-13.399588 62.937984 453.753784
-13.131962 63.467644 453.698700
-13.130046 63.991322 453.597839
-13.128139 64.514870 453.497009
-13.126240 65.038284 453.396210
-13.124350 65.561569 453.295441
-13.122468 66.084724 453.194672
-12.855133 66.613953 453.139618
-12.853308 67.136902 453.038879
-12.851492 67.659721 452.938171
-12.849684 68.182419 452.837494
-12.847884 68.704994 452.736847
-12.846093 69.227440 452.636200
-12.844310 69.749763 452.535583
-38.944729 -54.234554 471.884216
-38.658813 -53.667622 471.825165
-38.373047 -53.100960 471.766113
-36.957054 -50.841225 471.579529
-36.672047 -50.275867 471.520630
-36.387180 -49.710777 471.461731
-36.376717 -49.141869 471.353638
-36.092094 -48.577347 471.294830
-35.807613 -48.013084 471.236023
-35.523273 -47.449081 471.177277
-35.239071 -46.885342 471.118530
-34.955006 -46.321854 471.059814
-34.945087 -45.754803 470.951965
-34.935200 -45.188095 470.844208
-34.651478 -44.625462 470.785614
-34.641716 -44.059395 470.677948
-33.230270 -41.533703 470.439148
-32.947411 -40.972710 470.380707
-32.938267 -40.408550 470.273315
-32.655636 -39.848087 470.214935
-32.646614 -39.284554 470.107635
-32.364216 -38.724613 470.049286
-32.355316 -38.161694 469.942078
-32.346447 -37.599102 469.834961
-32.064373 -37.039963 469.776703
-31.235909 -36.487240 469.816223
-31.227402 -35.925434 469.709167
-31.218922 -35.363956 469.602173
-31.210463 -34.802803 469.495209
-31.202028 -34.241974 469.388336
-30.920660 -33.684319 469.330261
-30.912346 -33.124081 469.223480
-30.631197 -32.566921 469.165466
-30.623001 -32.007275 469.058777
-30.614832 -31.447943 468.952148
-30.606684 -30.888927 468.845551
-30.325941 -30.332794 468.787659
-29.468979 -27.550732 468.401428
-29.461273 -26.993698 468.295135
-29.181297 -26.439219 468.237457
-29.173708 -25.882750 468.131256
-29.166140 -25.326584 468.025116
-28.886467 -24.772825 467.967499
-28.879011 -24.217215 467.861450
-28.012449 -20.341457 467.265564
-28.026667 -21.449108 467.477112
-28.019547 -20.895136 467.371307
-27.705868 -17.578915 466.785889
-27.733690 -19.789755 467.208191
-27.726704 -19.236610 467.102539
-27.719736 -18.683758 466.996948
-27.712791 -18.131191 466.891388
-27.514528 -23.949745 468.050751
-26.858051 -14.825553 466.403595
-26.851452 -14.274830 466.298340
-26.844872 -13.724386 466.193115
-26.567249 -13.175333 466.136047
-26.560776 -12.625396 466.030945
-26.554321 -12.075734 465.925873
-25.977898 -9.058981 465.444702
-25.971701 -8.510987 465.339935
-25.694944 -7.963920 465.283081
-25.688850 -7.416411 465.178375
-25.682775 -6.869167 465.073700
-25.676720 -6.322186 464.969055
-25.670683 -5.775468 464.864471
-25.467077 -11.804995 466.065552
-25.394360 -5.229431 464.807770
-25.388424 -4.683186 464.703278
-25.382507 -4.137201 464.598816
-25.376610 -3.591473 464.494385
-25.100632 -3.046230 464.437775
-25.094833 -2.500967 464.333435
-25.089054 -1.955957 464.229126
-25.083294 -1.411201 464.124878
-25.077553 -0.866697 464.020691
-24.801992 -0.322434 463.964172
-24.526529 0.221674 463.907684
-24.520964 0.765524 463.803589
-24.515417 1.309126 463.699524
-24.509890 1.852482 463.595490
-24.504381 2.395593 463.491516
-24.498890 2.938460 463.387604
-24.223913 3.481427 463.331238
-24.218517 4.023856 463.227386
-24.213140 4.566044 463.123566
-24.207781 5.107993 463.019775
-24.202438 5.649703 462.916046
-23.927866 6.191758 462.859802
-23.922619 6.733041 462.756134
-23.917389 7.274090 462.652496
-23.912174 7.814904 462.548920
-23.906981 8.355485 462.445374
-23.901802 8.895834 462.341858
-23.896643 9.435952 462.238403
-23.622616 9.976757 462.182312
-23.617548 10.516464 462.078918
-23.341194 11.326635 461.971161
-23.336227 11.865823 461.867859
-23.331276 12.404786 461.764587
-23.326344 12.943526 461.661346
-23.321426 13.482042 461.558167
-23.316526 14.020338 461.455017
-23.311644 14.558412 461.351898
-23.306778 15.096268 461.248810
-23.301929 15.633905 461.145782
-23.297096 16.171324 461.042786
-23.024015 16.710037 460.986908
-23.019274 17.247074 460.883972
-23.014545 17.783895 460.781097
-23.009836 18.320505 460.678223
-23.005142 18.856901 460.575409
-22.732430 19.394836 460.519623
-22.727823 19.930859 460.416840
-22.723234 20.466675 460.314117
-22.718660 21.002281 460.211426
-22.714104 21.537682 460.108795
-22.441753 22.074863 460.053070
-22.437281 22.609900 459.950470
-22.432825 23.144733 459.847931
-22.428387 23.679365 459.745392
-22.423964 24.213795 459.642914
-22.419556 24.748026 459.540436
-22.415163 25.282055 459.438019
-22.410788 25.815887 459.335663
-22.402082 26.882961 459.130981
-22.138998 26.351887 459.280090
-22.130428 27.418663 459.075439
-22.126167 27.951759 458.973206
-22.121922 28.484663 458.870972
-22.117691 29.017372 458.768768
-21.846315 29.552544 458.713287
-21.842167 30.084921 458.611145
-21.838034 30.617107 458.509033
-21.833916 31.149105 458.406952
-21.829815 31.680918 458.304932
-21.556763 32.481201 458.198517
-21.552748 33.012596 458.096527
-21.548748 33.543808 457.994598
-21.544764 34.074837 457.892670
-21.540794 34.605682 457.790802
-21.536840 35.136353 457.688965
-21.532900 35.666840 457.587158
-21.528975 36.197147 457.485352
-21.525064 36.727280 457.383606
-20.969303 39.911530 456.866455
-20.965591 40.440536 456.764893
-20.961893 40.969376 456.663361
-20.958210 41.498043 456.561859
-20.954540 42.026543 456.460358
-20.759596 31.958242 458.440338
-20.684753 42.558689 456.405182
-20.188107 37.273968 457.514099
-20.133278 45.469990 455.940002
-20.129852 45.997398 455.838715
-20.126440 46.524647 455.737427
-19.857174 47.055962 455.682312
-19.853834 47.582939 455.581085
-19.850508 48.109760 455.479858
-19.618078 42.838226 456.539551
-19.579788 48.904095 455.374176
-19.576542 49.430573 455.273010
-19.573305 49.956894 455.171875
-19.570084 50.483063 455.070770
-19.566875 51.009083 454.969696
-19.298105 51.539585 454.914642
-19.294966 52.065346 454.813629
-19.291840 52.590958 454.712585
-19.288727 53.116417 454.611603
-19.285624 53.641731 454.510651
-19.282536 54.166897 454.409729
-19.002098 56.795662 453.951263
-19.014107 54.696842 454.354706
-19.011086 55.221764 454.253815
-19.008078 55.746540 454.152954
-19.005081 56.271172 454.052094
-18.785385 48.390560 455.613708
-18.733946 57.325176 453.896301
-18.731030 57.849430 453.795532
-18.728125 58.373543 453.694763
-18.725233 58.897514 453.594025
-18.722353 59.421349 453.493317
-18.719484 59.945045 453.392609
-18.716627 60.468601 453.291962
-18.713783 60.992023 453.191315
-18.446062 61.520859 453.136414
-18.443281 62.044060 453.035797
-18.440514 62.567123 452.935211
-18.437757 63.090054 452.834656
-18.435015 63.612854 452.734100
-18.432281 64.135521 452.633606
-18.154263 66.752945 452.176910
-18.151638 67.274887 452.076508
-18.149025 67.796707 451.976135
-18.146423 68.318398 451.875793
-17.879421 68.846176 451.820953
-17.876883 69.367668 451.720642
-17.874352 69.889038 451.620331
-17.871834 70.410278 451.520081
-17.869326 70.931404 451.419800
-44.428535 -54.147480 470.898926
-44.141838 -53.581337 470.840149
-42.722912 -51.323574 470.654449
-42.436996 -50.758755 470.595825
-42.151234 -50.194202 470.537201
-41.865616 -49.629917 470.478607
-41.580143 -49.065895 470.420013
-41.294819 -48.502140 470.361481
-41.009636 -47.938648 470.302948
-40.997963 -47.371620 470.195435
-40.713036 -46.808693 470.136993
-40.428249 -46.246021 470.078552
-40.143608 -45.683613 470.020142
-40.132282 -45.117828 469.912811
-39.847889 -44.555969 469.854462
-39.836700 -43.990826 469.747253
-39.825542 -43.426022 469.640076
-38.406715 -40.623436 469.349091
-38.123367 -40.063663 469.290955
-38.112858 -39.500931 469.184082
-38.102383 -38.938526 469.077240
-36.961109 -36.143173 468.738647
-36.678741 -35.585445 468.680725
-36.668823 -35.025097 468.574219
-36.658936 -34.465073 468.467743
-36.376896 -33.908131 468.409943
-36.367134 -33.348698 468.303558
-36.085327 -32.792255 468.245789
-36.075691 -32.233414 468.139496
-35.794109 -31.677469 468.081818
-35.784599 -31.119211 467.975616
-35.775120 -30.561270 467.869476
-35.493862 -30.006084 467.811859
-34.931732 -28.896379 467.696716
-34.922565 -28.339539 467.590729
-34.913429 -27.783007 467.484802
-34.904316 -27.226782 467.378937
-34.895233 -26.670862 467.273102
-34.614738 -26.117378 467.215698
-34.334373 -25.564108 467.158295
-34.325504 -25.009005 467.052582
-34.316662 -24.454203 466.946960
-34.307842 -23.899700 466.841370
-34.129749 -29.739548 468.001282
-34.027882 -23.347403 466.784088
-33.743740 -22.518421 466.674072
-33.735149 -21.964867 466.568634
-33.726582 -21.411606 466.463226
-33.447098 -20.860338 466.406067
-33.438648 -20.307617 466.300751
-33.430229 -19.755186 466.195496
-33.151047 -19.204609 466.138397
-33.142742 -18.652712 466.033203
-33.134460 -18.101101 465.928101
-33.126205 -17.549774 465.822998
-33.117973 -16.998735 465.717987
-32.266376 -14.251222 465.337463
-32.258492 -13.701729 465.232666
-31.980406 -13.153575 465.175873
-31.972631 -12.604589 465.071167
-31.964882 -12.055877 464.966492
-31.957155 -11.507440 464.861877
-31.949451 -10.959274 464.757324
-31.405624 -10.687003 464.800751
-31.398085 -10.139151 464.696228
-31.390570 -9.591569 464.591736
-31.383076 -9.044255 464.487305
-31.375607 -8.497208 464.382904
-31.368160 -7.950428 464.278564
-31.091064 -7.404491 464.222015
-31.083729 -6.858193 464.117737
-31.076414 -6.312157 464.013519
-31.069124 -5.766383 463.909332
-31.061857 -5.220869 463.805206
-30.785212 -4.675964 463.748779
-30.778051 -4.130921 463.644714
-30.770914 -3.586135 463.540710
-30.763800 -3.041605 463.436737
-30.487513 -2.497495 463.380402
-30.480505 -1.953427 463.276489
-30.473518 -1.409611 463.172638
-30.197502 -0.866074 463.116364
-30.190622 -0.322714 463.012573
-30.183765 0.220398 462.908844
-29.904636 1.034734 462.800781
-29.897896 1.577274 462.697144
-29.891174 2.119569 462.593536
-29.884476 2.661619 462.489960
-29.877798 3.203427 462.386444
-29.602518 3.745357 462.330353
-29.595943 4.286729 462.226898
-29.589390 4.827861 462.123505
-29.582859 5.368755 462.020142
-29.576349 5.909411 461.916809
-29.301489 6.450425 461.860809
-29.295080 6.990656 461.757538
-29.288692 7.530653 461.654327
-29.282328 8.070418 461.551147
-29.275982 8.609950 461.447998
-29.001534 9.150076 461.392120
-28.995289 9.689194 461.289032
-28.989063 10.228083 461.186005
-28.982861 10.766746 461.083008
-28.660475 15.606027 460.204834
-28.702637 11.844446 460.924255
-28.696552 12.382478 460.821350
-28.690487 12.920287 460.718506
-28.684444 13.457875 460.615692
-28.678421 13.995241 460.512909
-28.672419 14.532388 460.410187
-28.666435 15.069316 460.307495
-28.363716 18.287952 459.738983
-28.387058 16.143940 460.149170
-28.375347 17.216373 459.944000
-28.369522 17.752270 459.841492
-28.357929 18.823425 459.636536
-28.352163 19.358688 459.534149
-28.056719 22.033806 459.069397
-28.079287 19.895481 459.478607
-28.073614 20.430372 459.376251
-28.067963 20.965055 459.273926
-28.062330 21.499533 459.171631
-27.784222 22.569843 459.013916
-27.778700 23.103754 458.911743
-27.773199 23.637465 458.809570
-27.767717 24.170973 458.707458
-27.762257 24.704281 458.605347
-27.756813 25.237391 458.503296
-27.751389 25.770304 458.401276
-27.745985 26.303020 458.299316
-27.474073 26.837873 458.243958
-27.636585 11.310233 461.215759
-27.150648 32.686302 457.170959
-27.155725 32.155781 457.272583
-27.176214 30.031822 457.679382
-27.171064 30.563091 457.577637
-27.165932 31.094173 457.475922
-27.160818 31.625069 457.374237
-27.043484 16.687622 460.281403
-26.879593 33.219528 457.115814
-26.874603 33.749733 457.014221
-26.869633 34.279755 456.912689
-26.864679 34.809597 456.811188
-26.859747 35.339256 456.709717
-26.854830 35.868744 456.608246
-26.849932 36.398048 456.506836
-26.845051 36.927177 456.405457
-26.835344 37.984909 456.202789
-26.574541 37.459377 456.350403
-26.564968 38.516850 456.147736
-26.560207 39.045326 456.046448
-26.555466 39.573631 455.945221
-26.275991 41.161091 455.687805
-26.285294 40.105244 455.890198
-26.280634 40.633251 455.789001
-26.135765 27.382200 458.375153
-26.006020 41.692383 455.632843
-26.001461 42.219929 455.531708
-25.996918 42.747311 455.430603
-25.992392 43.274529 455.329498
-25.987885 43.801582 455.228455
-25.168425 46.709652 454.811249
-25.164164 47.235794 454.710327
-25.159920 47.761776 454.609436
-25.155691 48.287605 454.508575
-25.151480 48.813274 454.407745
-25.147284 49.338791 454.306946
-24.615503 49.610138 454.348419
-24.611422 50.135513 454.247620
-24.607355 50.660740 454.146851
-24.603306 51.185810 454.046112
-24.599272 51.710732 453.945374
-24.595253 52.235500 453.844696
-24.591249 52.760120 453.744019
-24.587263 53.284595 453.643372
-24.583292 53.808922 453.542755
-24.314825 54.337841 453.487976
-24.310930 54.861919 453.387390
-24.307049 55.385853 453.286835
-24.303183 55.909641 453.186279
-24.299332 56.433289 453.085785
-24.295496 56.956795 452.985291
-24.027384 57.485176 452.930542
-24.023621 58.008442 452.830109
-24.019873 58.531570 452.729675
-24.016142 59.054562 452.629272
-24.012423 59.577412 452.528900
-24.008720 60.100124 452.428558
-23.740950 60.627998 452.373840
-23.737320 61.150486 452.273499
-23.733702 61.672836 452.173218
-23.730101 62.195053 452.072937
-23.726513 62.717140 451.972687
-23.722940 63.239090 451.872467
-23.719381 63.760914 451.772247
-23.715837 64.282600 451.672058
-23.448511 64.809830 451.617401
-23.445038 65.331299 451.517242
-23.441578 65.852646 451.417114
-23.438129 66.373871 451.317017
-23.434698 66.894958 451.216919
-23.431280 67.415932 451.116852
-23.427876 67.936768 451.016815
-23.160927 68.463478 450.962189
-23.157591 68.984116 450.862183
-23.154266 69.504623 450.762177
-23.150957 70.025017 450.662201
-23.147661 70.545288 450.562256
-23.144381 71.065437 450.462311
-22.877747 71.591736 450.407715
-49.042435 -52.652985 469.795288
-47.622044 -50.399624 469.610718
-47.335583 -49.835957 469.552399
-47.322048 -49.268784 469.445190
-47.035847 -48.705688 469.386902
-46.749802 -48.142864 469.328674
-46.463902 -47.580303 469.270447
-46.178154 -47.018005 469.212280
-45.892555 -46.455967 469.154114
-45.879608 -45.890652 469.047150
-45.594265 -45.329174 468.989044
-45.309071 -44.767956 468.930969
-45.296375 -44.203571 468.824158
-45.283710 -43.639534 468.717407
-44.998878 -43.079159 468.659424
-44.163612 -42.243992 468.645538
-44.151363 -41.680950 468.538910
-44.139149 -41.118244 468.432312
-44.126965 -40.555874 468.325806
-43.903584 -42.810703 468.800964
-43.842873 -39.996941 468.267975
-43.558918 -39.438251 468.210175
-43.546982 -38.876781 468.103790
-43.263275 -38.318623 468.046021
-42.979710 -37.760708 467.988281
-42.968014 -37.200130 467.882050
-42.956348 -36.639881 467.775848
-42.673134 -36.082767 467.718201
-41.801907 -33.295528 467.333466
-41.790752 -32.737343 467.227570
-41.508392 -32.181992 467.170135
-41.497368 -31.624393 467.064331
-41.303478 -35.537029 467.854645
-41.215244 -31.069538 467.006927
-41.204357 -30.512524 466.901245
-41.193497 -29.955818 466.795563
-40.911709 -29.401722 466.738281
-40.348530 -28.294197 466.623718
-40.338001 -27.738592 466.518219
-40.327503 -27.183294 466.412750
-40.317036 -26.628300 466.307373
-40.306599 -26.073608 466.202026
-40.025604 -25.521214 466.144897
-39.744736 -24.969034 466.087799
-39.734524 -24.415155 465.982574
-39.724342 -23.861576 465.877411
-39.714191 -23.308296 465.772278
-39.545967 -28.856924 466.874176
-39.433746 -22.757086 465.715302
-38.829216 -19.172512 465.129395
-38.878162 -21.931522 465.653900
-38.868313 -21.379139 465.548889
-38.858498 -20.827045 465.443939
-38.848705 -20.275246 465.339050
-38.838947 -19.723734 465.234192
-38.549580 -18.623028 465.072601
-38.539970 -18.072334 464.967896
-38.530392 -17.521927 464.863220
-38.347191 -22.487736 465.855164
-38.251068 -16.973120 464.806519
-37.655872 -13.680118 464.275299
-37.646713 -13.131817 464.170959
-37.368214 -12.584757 464.114441
-37.359177 -12.036960 464.010193
-37.350166 -11.489435 463.905975
-37.341183 -10.942182 463.801819
-37.332230 -10.395199 463.697693
-36.892487 -16.429642 464.941437
-36.785084 -9.849977 463.688965
-36.776310 -9.303442 463.584900
-36.767563 -8.757174 463.480896
-36.758842 -8.211172 463.376923
-36.750149 -7.665434 463.273010
-36.741486 -7.119960 463.169128
-36.464058 -6.575228 463.112885
-36.455505 -6.030233 463.009064
-36.446983 -5.485498 462.905304
-36.438488 -4.941021 462.801605
-35.855583 -1.951185 462.326813
-35.847382 -1.408275 462.223358
-35.839203 -0.865616 462.119934
-35.831055 -0.323205 462.016571
-35.822929 0.218957 461.913239
-35.546749 0.760989 461.857269
-35.270679 1.302863 461.801300
-35.262749 1.844377 461.698059
-35.254848 2.385646 461.594879
-35.246971 2.926673 461.491730
-35.239120 3.467458 461.388611
-35.231293 4.008003 461.285522
-34.955750 4.548735 461.229706
-34.948032 5.088846 461.126709
-34.940342 5.628721 461.023743
-34.932674 6.168360 460.920807
-34.653702 6.978003 460.813629
-34.646156 7.517101 460.710785
-34.638634 8.055966 460.608002
-34.631138 8.594601 460.505249
-34.623665 9.133006 460.402527
-34.616219 9.671181 460.299835
-34.341583 10.210020 460.244232
-34.334240 10.747785 460.141602
-34.326923 11.285325 460.039032
-33.988499 16.649973 459.062164
-34.045334 12.360800 459.880920
-34.038147 12.897714 459.778442
-34.030983 13.434406 459.675995
-34.023842 13.970878 459.573608
-34.016724 14.507131 459.471252
-34.009632 15.043166 459.368927
-34.002563 15.578983 459.266632
-33.995518 16.114586 459.164368
-33.714935 17.186609 459.006775
-33.708015 17.721615 458.904602
-33.701122 18.256407 458.802490
-33.694248 18.790989 458.700409
-33.687401 19.325361 458.598358
-33.414246 19.861210 458.543060
-33.407497 20.395210 458.441040
-33.400772 20.929005 458.339081
-33.394070 21.462591 458.237152
-33.387390 21.995975 458.135284
-33.380737 22.529158 458.033417
-33.101494 23.596907 457.876404
-33.108051 23.064085 457.978210
-33.094959 24.129526 457.774658
-33.088451 24.661947 457.672913
-33.081963 25.194170 457.571228
-33.075497 25.726196 457.469543
-33.069054 26.258026 457.367920
-33.062634 26.789661 457.266327
-33.056236 27.321100 457.164764
-32.983837 11.827773 460.171387
-32.784237 27.854692 457.109680
-32.777935 28.385792 457.008179
-32.771656 28.916700 456.906708
-32.765400 29.447418 456.805237
-32.759163 29.977947 456.703827
-32.487545 30.510853 456.648834
-32.481403 31.041050 456.547455
-32.475285 31.571060 456.446136
-32.469189 32.100887 456.344818
-32.463116 32.630527 456.243530
-32.457062 33.159988 456.142303
-32.185883 33.692093 456.087372
-32.179924 34.221233 455.986176
-32.173985 34.750191 455.885010
-32.168068 35.278969 455.783875
-32.162174 35.807571 455.682770
-32.156300 36.335995 455.581696
-32.150448 36.864243 455.480652
-32.144615 37.392311 455.379639
-32.138805 37.920212 455.278656
-31.868267 38.451160 455.223846
-31.862547 38.978756 455.122925
-31.856848 39.506180 455.022003
-31.851170 40.033432 454.921112
-31.580917 40.563919 454.866333
-31.575329 41.090878 454.765503
-31.569759 41.617668 454.664703
-31.299719 42.147831 454.609924
-31.294237 42.674332 454.509155
-31.288778 43.200665 454.408417
-31.283339 43.726837 454.307709
-31.013573 44.256565 454.252991
-30.743879 44.786224 454.198273
-30.738592 45.311996 454.097595
-30.733326 45.837608 453.996979
-30.728079 46.363060 453.896362
-30.722851 46.888351 453.795776
-30.453491 47.417480 453.741089
-30.448349 47.942501 453.640564
-30.443226 48.467369 453.540039
-30.438122 48.992081 453.439545
-30.169027 49.520809 453.384918
-29.897520 50.311668 453.280029
-29.892572 50.835930 453.179596
-29.887644 51.360043 453.079193
-29.882734 51.884003 452.978821
-29.877844 52.407814 452.878448
-29.872971 52.931477 452.778137
-29.868116 53.454994 452.677826
-29.863281 53.978363 452.577545
-29.858465 54.501587 452.477295
-29.566544 57.642773 451.921875
-29.590040 55.029308 452.422729
-29.585304 55.552288 452.322510
-29.580587 56.075123 452.222290
-29.575888 56.597813 452.122131
-29.571205 57.120361 452.021973
-29.280256 60.257824 451.467102
-29.298487 58.169956 451.867340
-29.293903 58.692131 451.767242
-29.289335 59.214165 451.667175
-29.284786 59.736065 451.567108
-29.110168 49.799908 453.517975
-29.010273 61.045376 451.362610
-29.005829 61.566841 451.262604
-29.001400 62.088173 451.162659
-28.996990 62.609375 451.062714
-28.992598 63.130444 450.962799
-28.988222 63.651379 450.862915
-28.983864 64.172188 450.763062
-28.979525 64.692856 450.663208
-28.975201 65.213409 450.563385
-28.708000 65.739388 450.508942
-28.703751 66.259720 450.409149
-28.699518 66.779930 450.309357
-28.695305 67.300011 450.209625
-28.691107 67.819969 450.109894
-28.686926 68.339798 450.010162
-28.420065 68.865341 449.955750
-28.415956 69.384972 449.856049
-28.411863 69.904472 449.756409
-28.407787 70.423859 449.656738
-28.403728 70.943123 449.557129
-28.399685 71.462265 449.457520
-28.395658 71.981293 449.357941
-28.224709 60.539181 451.599152
-28.129185 72.506348 449.303558
-53.927589 -51.730644 468.754333
-53.639889 -51.167061 468.696228
-53.352345 -50.603748 468.638153
-53.064960 -50.040710 468.580109
-52.777733 -49.477940 468.522095
-52.762707 -48.911842 468.415375
-52.475750 -48.349648 468.357422
-52.188946 -47.787720 468.299469
-51.902298 -47.226055 468.241577
-51.615807 -46.664658 468.183685
-51.329464 -46.103523 468.125824
-51.315044 -45.539276 468.019318
-51.028969 -44.978703 467.961517
-50.743046 -44.418388 467.903748
-50.728886 -43.855080 467.797394
-50.714767 -43.292107 467.691101
-50.429214 -42.732635 467.633423
-49.268227 -39.655643 467.243896
-49.254749 -39.094952 467.137909
-48.970219 -38.537460 467.080444
-48.956882 -37.977383 466.974579
-48.672604 -37.420418 466.917145
-48.659416 -36.860947 466.811371
-48.375389 -36.304504 466.753998
-48.362347 -35.745636 466.648315
-48.349335 -35.187088 466.542694
-47.196709 -32.130344 466.155579
-47.184212 -31.573685 466.050232
-46.901375 -31.019655 465.993103
-46.618675 -30.465857 465.936035
-46.606422 -29.910044 465.830780
-46.594204 -29.354542 465.725586
-46.311852 -28.801500 465.668610
-45.747559 -27.696089 465.554657
-45.735683 -27.141682 465.449615
-45.723843 -26.587578 465.344635
-45.712036 -26.033773 465.239716
-45.700264 -25.480272 465.134827
-45.418728 -24.928934 465.078003
-45.407089 -24.375990 464.973206
-45.125793 -23.825121 464.916443
-45.114288 -23.272724 464.811737
-45.102818 -22.720627 464.707092
-45.091381 -22.168819 464.602478
-44.954609 -28.534725 465.856750
-44.227001 -19.418486 464.223663
-44.215961 -18.868290 464.119293
-44.204956 -18.318382 464.014984
-44.150406 -15.573088 463.494141
-43.913998 -17.220692 463.854248
-43.903152 -16.671591 463.750061
-43.892342 -16.122772 463.645935
-43.924873 -17.770075 463.958496
-43.027569 -13.112114 463.216888
-43.017159 -12.564967 463.113007
-43.006775 -12.018092 463.009155
-42.996426 -11.471489 462.905365
-42.986107 -10.925157 462.801605
-42.707443 -10.379840 462.745453
-42.423847 -9.561868 462.637482
-42.413761 -9.016387 462.533844
-42.403709 -8.471172 462.430267
-42.393688 -7.926221 462.326721
-42.383698 -7.381533 462.223236
-42.105694 -6.837579 462.167236
-42.095829 -6.293371 462.063812
-42.085991 -5.749423 461.960449
-41.808292 -5.206078 461.904480
-41.798576 -4.662604 461.801178
-41.473415 -1.407145 461.229553
-41.521084 -4.119645 461.745270
-41.511490 -3.576639 461.642029
-41.501926 -3.033887 461.538849
-41.492393 -2.491388 461.435699
-41.482891 -1.949141 461.332611
-41.159252 1.299281 460.762054
-41.196491 -0.865403 461.173767
-41.187138 -0.323862 461.070770
-41.177814 0.217432 460.967834
-41.168518 0.758479 460.864929
-40.882801 1.840047 460.706390
-40.873653 2.380405 460.603577
-40.864532 2.920521 460.500824
-40.855446 3.460396 460.398102
-40.579365 4.000409 460.342499
-40.570393 4.539849 460.239868
-40.561447 5.079051 460.137238
-40.552532 5.618017 460.034668
-40.543648 6.156748 459.932129
-40.534790 6.695244 459.829651
-40.454182 -4.392381 461.986389
-39.953651 9.654485 459.360443
-39.945091 10.191571 459.258179
-39.936562 10.728431 459.155945
-39.928059 11.265066 459.053741
-39.919582 11.801478 458.951599
-39.611610 14.481418 458.488129
-39.603359 15.016551 458.386169
-39.636536 12.874711 458.794189
-39.628201 13.410499 458.692139
-39.619892 13.946068 458.590118
-39.463219 6.966853 459.966400
-39.296783 17.690451 457.923645
-39.329189 15.552758 458.330994
-39.321049 16.087502 458.229095
-39.312935 16.622030 458.127228
-39.304844 17.156345 458.025421
-38.983547 20.892389 457.360229
-39.023045 18.225845 457.868530
-39.015091 18.759569 457.766785
-39.007164 19.293085 457.665100
-38.999264 19.826393 457.563446
-38.991394 20.359493 457.461823
-38.975727 21.425079 457.258667
-38.967937 21.957565 457.157166
-38.960171 22.489849 457.055664
-38.664268 24.618984 456.696503
-38.687168 23.023813 457.000702
-38.679508 23.555737 456.899261
-38.671875 24.087460 456.797882
-38.656685 25.150311 456.595184
-38.579578 12.342859 459.083618
-38.384090 25.683537 456.540283
-38.376614 26.214514 456.438995
-38.369164 26.745295 456.337738
-38.361736 27.275883 456.236542
-38.354340 27.806278 456.135345
-38.346966 28.336481 456.034180
-38.339619 28.866495 455.933075
-38.067577 29.398710 455.878265
-38.060329 29.928389 455.777191
-38.053112 30.457876 455.676147
-38.045918 30.987179 455.575165
-38.038746 31.516296 455.474182
-38.031601 32.045227 455.373230
-38.024483 32.573978 455.272308
-38.017387 33.102543 455.171417
-37.745964 33.633656 455.116730
-37.738972 34.161903 455.015900
-37.732002 34.689968 454.915070
-37.725056 35.217854 454.814301
-37.718136 35.745564 454.713562
-37.711243 36.273094 454.612823
-37.440273 36.803432 454.558197
-37.433475 37.330654 454.457520
-37.426701 37.857704 454.356873
-37.419952 38.384579 454.256256
-37.413231 38.911282 454.155670
-36.862293 40.760014 453.895721
-36.855770 41.286037 453.795227
-36.849274 41.811893 453.694763
-36.842800 42.337582 453.594330
-36.572685 42.866589 453.539825
-36.566307 43.391994 453.439423
-36.559952 43.917233 453.339050
-36.553619 44.442310 453.238708
-36.353973 39.187317 454.289398
-36.283791 44.970879 453.184204
-36.014046 45.499378 453.129730
-36.007874 46.024059 453.029419
-36.001724 46.548576 452.929169
-35.995598 47.072941 452.828918
-35.989494 47.597145 452.728699
-35.720097 48.125114 452.674255
-35.714085 48.649048 452.574066
-35.708092 49.172829 452.473938
-35.702126 49.696457 452.373810
-35.696178 50.219933 452.273682
-35.690254 50.743256 452.173615
-35.421265 51.270607 452.119202
-35.415432 51.793671 452.019165
-35.409618 52.316586 451.919159
-35.403828 52.839355 451.819153
-35.135109 53.366325 451.764801
-35.129402 53.888844 451.664825
-35.123722 54.411213 451.564880
-35.118061 54.933437 451.464966
-35.112423 55.455517 451.365082
-34.816475 58.589806 450.811707
-34.838478 56.503860 451.210907
-34.832947 57.025558 451.111053
-34.827435 57.547115 451.011261
-34.821945 58.068527 450.911469
-34.527058 61.199131 450.358612
-34.548473 59.115772 450.757385
-34.543087 59.636818 450.657654
-34.537724 60.157722 450.557953
-34.532379 60.678493 450.458252
-34.259369 61.724682 450.304321
-34.254128 62.245090 450.204681
-34.248905 62.765369 450.105072
-34.243706 63.285515 450.005493
-34.238525 63.805531 449.905914
-34.233364 64.325417 449.806366
-34.228226 64.845169 449.706848
-34.223106 65.364799 449.607330
-34.218006 65.884293 449.507843
-33.950867 66.409103 449.453613
-33.945847 66.928391 449.354156
-33.940845 67.447556 449.254730
-33.935863 67.966591 449.155304
-33.930904 68.485504 449.055908
-33.925961 69.004295 448.956543
-33.792568 56.000385 451.492889
-33.659180 69.528656 448.902313
-33.654316 70.047241 448.802979
-33.649471 70.565712 448.703644
-33.644646 71.084053 448.604340
-33.639835 71.602280 448.505035
-33.635048 72.120392 448.405762
-33.630280 72.638374 448.306519
-33.363903 73.162254 448.252319
-59.349632 -51.090092 467.673004
-59.061180 -50.527527 467.615234
-59.044350 -49.961723 467.508881
-57.605095 -47.154488 467.220612
-57.317722 -46.593845 467.163025
-57.030510 -46.033466 467.105438
-57.014538 -45.470135 466.999420
-56.727600 -44.910316 466.941925
-56.440815 -44.350761 466.884430
-56.154190 -43.791470 466.826996
-56.138603 -43.229359 466.721100
